-0.07183660 0.79776316 1.44069805 0.00000000 0.00000000 0.00000000
-0.09838988 0.32391115 1.57460291 0.00000000 0.00000000 0.00000000
-0.24616921 1.43867404 1.26917712 0.00000000 0.00000000 0.00000000
-0.81974058 0.88559693 0.86588514 0.00000000 0.00000000 0.00000000
0.33594698 1.06805212 1.14503819 0.00000000 0.00000000 0.00000000
-0.24034736 1.15353737 0.50727908 0.00000000 0.00000000 0.00000000
0.31324409 1.50666787 0.93596224 0.00000000 0.00000000 0.00000000
-0.84313439 0.74416928 1.07071909 0.00000000 0.00000000 0.00000000
-0.18420998 0.82742027 2.04205184 0.00000000 0.00000000 0.00000000
0.47873742 0.55514093 0.48722711 0.00000000 0.00000000 0.00000000
0.05570839 1.11022208 1.12419853 0.00000000 0.00000000 0.00000000
0.41995341 1.18347736 0.62590589 0.00000000 0.00000000 0.00000000
-0.01573151 0.74943168 1.37761876 0.00000000 0.00000000 0.00000000
0.89923228 1.38679694 0.76955164 0.00000000 0.00000000 0.00000000
-0.86640579 2.18829368 0.87403178 0.00000000 0.00000000 0.00000000
0.29971999 1.20760832 0.29339094 0.00000000 0.00000000 0.00000000
-0.28307429 0.56526790 0.72167272 0.00000000 0.00000000 0.00000000
-0.37271204 0.63359022 1.08470099 0.00000000 0.00000000 0.00000000
-0.39340496 1.46522254 0.75855670 0.00000000 0.00000000 0.00000000
-0.17634427 0.65006472 1.00164492 0.00000000 0.00000000 0.00000000
-0.31996933 1.20818221 1.37455253 0.00000000 0.00000000 0.00000000
-0.02836999 0.22681524 1.17820468 0.00000000 0.00000000 0.00000000
0.41021269 1.24493883 1.36867040 0.00000000 0.00000000 0.00000000
-0.05477237 0.27161383 0.76777898 0.00000000 0.00000000 0.00000000
0.11524609 0.96360015 2.14290673 0.00000000 0.00000000 0.00000000
0.52124364 0.25682151 1.01154964 0.00000000 0.00000000 0.00000000
1.62917657 0.85326029 0.43933832 0.00000000 0.00000000 0.00000000
-0.84920525 1.18117036 0.84183398 0.00000000 0.00000000 0.00000000
0.13513582 0.37945492 1.13597411 0.00000000 0.00000000 0.00000000
-0.32144706 1.00274735 1.48965346 0.00000000 0.00000000 0.00000000
0.13668872 1.12273992 1.01351629 0.00000000 0.00000000 0.00000000
-0.82044828 1.17882715 0.40942863 0.00000000 0.00000000 0.00000000
1.06978551 0.58356695 1.02732435 0.00000000 0.00000000 0.00000000
0.90608140 1.80536486 0.84294910 0.00000000 0.00000000 0.00000000
-0.08620551 0.91806074 1.90278721 0.00000000 0.00000000 0.00000000
0.86302630 0.79008969 0.62688586 0.00000000 0.00000000 0.00000000
-0.65093218 1.05061226 1.69376083 0.00000000 0.00000000 0.00000000
0.93470276 0.75274036 1.05729832 0.00000000 0.00000000 0.00000000
0.16838746 0.62135726 1.39202955 0.00000000 0.00000000 0.00000000
-0.11486594 0.72047264 1.02442931 0.00000000 0.00000000 0.00000000
-0.37163923 0.63350294 1.84365007 0.00000000 0.00000000 0.00000000
-0.87915589 1.15762326 1.20505144 0.00000000 0.00000000 0.00000000
-0.88729149 1.03825015 0.61014130 0.00000000 0.00000000 0.00000000
0.32635684 1.79162134 1.65485994 0.00000000 0.00000000 0.00000000
-1.03718369 0.61998863 1.41288611 0.00000000 0.00000000 0.00000000
-0.14425304 0.64544383 1.17059578 0.00000000 0.00000000 0.00000000
0.36617266 0.24808963 1.78409742 0.00000000 0.00000000 0.00000000
0.44979033 1.69484927 -0.30123895 0.30000000 0.30000000 0.30000000
-0.69248646 0.94603087 1.84853497 0.00000000 0.00000000 0.00000000
0.01675558 0.99185968 1.79861777 0.00000000 0.00000000 0.00000000
-0.17182528 1.47095136 -0.05616700 0.30000000 0.30000000 0.30000000
0.33034184 1.07943844 1.01079321 0.00000000 0.00000000 0.00000000
-0.18748790 1.42258128 -0.18844441 0.30000000 0.30000000 0.30000000
1.26443641 0.96632533 2.29596445 0.00000000 0.00000000 0.00000000
-0.08546943 0.36184118 0.74511777 0.00000000 0.00000000 0.00000000
-0.07850047 0.07192169 0.38666612 0.00000000 0.00000000 0.00000000
0.08225225 1.61313163 0.56658330 0.00000000 0.00000000 0.00000000
0.16197509 1.30365510 1.66837441 0.00000000 0.00000000 0.00000000
-0.17509511 1.48431455 1.26211608 0.00000000 0.00000000 0.00000000
0.40890150 1.17165196 0.90730989 0.00000000 0.00000000 0.00000000
0.16568086 0.53789157 1.67818694 0.00000000 0.00000000 0.00000000
0.06946766 0.47098449 1.62474481 0.00000000 0.00000000 0.00000000
0.29251514 0.35626911 1.52345039 0.00000000 0.00000000 0.00000000
-0.51957511 0.58969086 1.50450106 0.00000000 0.00000000 0.00000000
0.94626636 0.87810855 0.56703745 0.00000000 0.00000000 0.00000000
0.08546128 1.00175285 -0.03306712 0.00000000 0.00000000 0.00000000
0.10002126 0.92221470 0.99061731 0.00000000 0.00000000 0.00000000
-0.29289220 0.65993228 0.08425060 0.00000000 0.00000000 0.00000000
0.31184054 0.55276713 1.64196627 0.00000000 0.00000000 0.00000000
-0.67346387 0.70769658 -0.06333802 0.30000000 0.30000000 0.30000000
-0.22664805 1.16307558 1.15635037 0.00000000 0.00000000 0.00000000
0.99535305 0.98738421 0.74930298 0.00000000 0.00000000 0.00000000
0.80423673 0.46284061 1.02071240 0.00000000 0.00000000 0.00000000
-0.37665988 0.92354411 1.47364844 0.00000000 0.00000000 0.00000000
0.26992790 0.91628619 1.00228846 0.00000000 0.00000000 0.00000000
-0.36686379 1.42204537 1.31179792 0.00000000 0.00000000 0.00000000
0.20098297 0.15870983 0.89902138 0.00000000 0.00000000 0.00000000
0.15578837 0.93420633 1.52771357 0.00000000 0.00000000 0.00000000
-0.14142799 0.59284858 2.29190648 0.00000000 0.00000000 0.00000000
-0.05993925 1.01803369 1.89911537 0.00000000 0.00000000 0.00000000
0.15312783 0.61150244 0.78496044 0.00000000 0.00000000 0.00000000
-0.26936833 0.73759284 0.50358793 0.00000000 0.00000000 0.00000000
-0.26874991 1.94053299 0.76358272 0.00000000 0.00000000 0.00000000
0.23649112 1.17644698 0.85185809 0.00000000 0.00000000 0.00000000
0.07269168 0.52159421 1.11149197 0.00000000 0.00000000 0.00000000
0.60962325 1.46040926 0.77747067 0.00000000 0.00000000 0.00000000
-0.14700019 1.60168098 1.41898668 0.00000000 0.00000000 0.00000000
-0.10268179 0.54043877 1.49638135 0.00000000 0.00000000 0.00000000
0.41772725 1.70305253 0.62612770 0.00000000 0.00000000 0.00000000
-0.84554836 0.70444108 0.34189127 0.00000000 0.00000000 0.00000000
0.50845235 1.20052083 0.21545240 0.00000000 0.00000000 0.00000000
0.79183131 0.86356667 1.35933853 0.00000000 0.00000000 0.00000000
0.24285373 0.27560731 0.79146942 0.00000000 0.00000000 0.00000000
0.32830067 -0.01590590 1.31872721 0.00000000 0.00000000 0.00000000
-0.65419013 0.01709114 1.80268754 0.00000000 0.00000000 0.00000000
-0.63790969 0.83745352 1.53545808 0.00000000 0.00000000 0.00000000
0.25656193 0.25152136 1.16997972 0.00000000 0.00000000 0.00000000
0.21159290 0.92381930 1.22602465 0.00000000 0.00000000 0.00000000
0.46259991 1.44236796 0.50012083 0.00000000 0.00000000 0.00000000
-0.48300528 0.92758114 0.28036304 0.00000000 0.00000000 0.00000000
-0.02072500 1.76768268 0.26217848 0.00000000 0.00000000 0.00000000
0.04324064 0.77841703 1.22013577 0.00000000 0.00000000 0.00000000
-0.02194358 1.99897481 1.85265133 0.00000000 0.00000000 0.00000000
-0.11300025 1.04650361 0.83510401 0.00000000 0.00000000 0.00000000
-0.53792879 0.67142462 1.70899065 0.00000000 0.00000000 0.00000000
0.35475949 2.14449748 1.19975135 0.00000000 0.00000000 0.00000000
-0.36535144 -0.05697031 0.63322445 0.00000000 0.00000000 0.00000000
-0.19812169 0.45494110 1.44025959 0.00000000 0.00000000 0.00000000
-0.33766451 0.50242935 1.26531782 0.00000000 0.00000000 0.00000000
0.70131860 1.18220659 0.94901857 0.00000000 0.00000000 0.00000000
-0.10522495 0.75534439 1.34877999 0.00000000 0.00000000 0.00000000
-0.06190256 -0.91809410 0.69010803 0.60000000 0.60000000 0.60000000
0.41094399 1.69406334 1.60875476 0.00000000 0.00000000 0.00000000
-0.63243079 0.52848719 1.64842627 0.00000000 0.00000000 0.00000000
0.05952370 1.24222342 0.69305983 0.00000000 0.00000000 0.00000000
0.12521464 1.09489255 0.76177895 0.00000000 0.00000000 0.00000000
-0.42406241 0.40947077 1.19011208 0.00000000 0.00000000 0.00000000
-0.04841288 0.65420792 0.80735944 0.00000000 0.00000000 0.00000000
-1.01085975 0.79217864 0.35350307 0.00000000 0.00000000 0.00000000
0.14793018 1.61085492 0.79950439 0.00000000 0.00000000 0.00000000
0.34630478 1.07845915 0.39609041 0.00000000 0.00000000 0.00000000
-0.67680463 1.14250113 2.10018579 0.00000000 0.00000000 0.00000000
0.19172793 0.93089023 1.09421982 0.00000000 0.00000000 0.00000000
-0.85289524 0.60900810 0.16487504 0.00000000 0.00000000 0.00000000
0.05365700 1.46841385 0.61071825 0.00000000 0.00000000 0.00000000
-0.88088186 1.52358523 1.38759732 0.00000000 0.00000000 0.00000000
0.29837614 0.89624025 1.13876928 0.00000000 0.00000000 0.00000000
-0.22386914 1.47063604 0.55169318 0.00000000 0.00000000 0.00000000
-0.25535864 1.54511093 0.06487843 0.00000000 0.00000000 0.00000000
-0.50509720 1.12855028 1.62896617 0.00000000 0.00000000 0.00000000
1.02711869 0.31590970 0.95433870 0.00000000 0.00000000 0.00000000
-0.37626199 0.77329420 1.20078310 0.00000000 0.00000000 0.00000000
-0.21758647 0.38480606 1.38076461 0.00000000 0.00000000 0.00000000
0.55113010 1.29828707 0.14090009 0.00000000 0.00000000 0.00000000
-0.38783211 1.31971682 0.63012704 0.00000000 0.00000000 0.00000000
-0.58580148 0.44233032 0.71871584 0.00000000 0.00000000 0.00000000
-0.03296262 1.58091054 1.21102991 0.00000000 0.00000000 0.00000000
-0.31701076 0.89012238 0.66111348 0.00000000 0.00000000 0.00000000
0.21179626 0.93604374 0.29710713 0.00000000 0.00000000 0.00000000
-0.99498600 1.25138602 1.81148570 0.00000000 0.00000000 0.00000000
-0.07880336 1.18652410 1.64585226 0.00000000 0.00000000 0.00000000
0.68709446 0.65854145 0.42132911 0.00000000 0.00000000 0.00000000
-0.09634001 0.00566124 0.77468851 0.00000000 0.00000000 0.00000000
0.35639553 0.92823872 0.88477891 0.00000000 0.00000000 0.00000000
-0.19526083 0.63227696 0.92598759 0.00000000 0.00000000 0.00000000
-0.44801692 0.96863472 1.83741979 0.00000000 0.00000000 0.00000000
0.05646253 0.10984342 1.58129158 0.00000000 0.00000000 0.00000000
-0.74750696 0.59644228 0.62693425 0.00000000 0.00000000 0.00000000
0.26625073 1.48345581 0.07634720 0.00000000 0.00000000 0.00000000
-0.85486745 0.93353458 0.86663237 0.00000000 0.00000000 0.00000000
0.08951297 1.42436910 0.57868869 0.00000000 0.00000000 0.00000000
1.16547734 1.18249027 1.35980260 0.00000000 0.00000000 0.00000000
-0.30040360 0.77182128 1.05448281 0.00000000 0.00000000 0.00000000
-0.93927995 1.02687097 0.39754832 0.00000000 0.00000000 0.00000000
-1.27656876 0.19064955 1.66081625 0.00000000 0.00000000 0.00000000
0.48358299 1.10793225 0.77361240 0.00000000 0.00000000 0.00000000
0.06204169 0.73499138 1.09152018 0.00000000 0.00000000 0.00000000
-0.56450784 0.40857902 1.29290735 0.00000000 0.00000000 0.00000000
-0.75717313 0.53009054 1.15700083 0.00000000 0.00000000 0.00000000
-0.05482991 0.60768594 0.65559633 0.00000000 0.00000000 0.00000000
-0.60461399 1.18385339 1.34717197 0.00000000 0.00000000 0.00000000
-0.55243925 1.39857466 1.35471372 0.00000000 0.00000000 0.00000000
-0.04612830 -0.01236280 0.74138408 0.00000000 0.00000000 0.00000000
0.80877268 1.06180589 1.24978979 0.00000000 0.00000000 0.00000000
0.17189058 0.92060097 0.84134191 0.00000000 0.00000000 0.00000000
0.25299880 1.18718912 0.90947520 0.00000000 0.00000000 0.00000000
-0.33813393 1.35225215 1.19237660 0.00000000 0.00000000 0.00000000
0.34059732 1.15131512 2.19430184 0.00000000 0.00000000 0.00000000
-0.28436436 0.38529606 0.85107699 0.00000000 0.00000000 0.00000000
-0.27990115 0.68778476 1.31285782 0.00000000 0.00000000 0.00000000
-0.46225930 1.06787933 1.63519983 0.00000000 0.00000000 0.00000000
-0.28056711 1.27787544 0.39240485 0.00000000 0.00000000 0.00000000
-0.46591223 0.16468875 1.46167050 0.00000000 0.00000000 0.00000000
0.44853802 1.57428034 0.27492771 0.00000000 0.00000000 0.00000000
0.25304448 1.32284591 1.04024231 0.00000000 0.00000000 0.00000000
0.34737423 1.29348381 1.26223919 0.00000000 0.00000000 0.00000000
0.26218955 0.38970561 1.53590987 0.00000000 0.00000000 0.00000000
-0.86476625 0.30665601 0.74492711 0.00000000 0.00000000 0.00000000
-0.04729373 1.29428644 1.32769221 0.00000000 0.00000000 0.00000000
-0.26927388 0.57008831 1.01194162 0.00000000 0.00000000 0.00000000
0.44265094 0.81753451 1.06821717 0.00000000 0.00000000 0.00000000
-0.06237451 0.18061088 0.33936759 0.00000000 0.00000000 0.00000000
0.72740216 1.35197118 0.79352191 0.00000000 0.00000000 0.00000000
0.63587690 0.57574319 0.72832722 0.00000000 0.00000000 0.00000000
0.28680821 0.86321899 0.74826070 0.00000000 0.00000000 0.00000000
-0.58570535 0.72720310 0.10225070 0.00000000 0.00000000 0.00000000
-0.37595118 1.15690558 1.54518089 0.00000000 0.00000000 0.00000000
0.25058938 0.26201066 1.11769875 0.00000000 0.00000000 0.00000000
0.19753486 1.32705854 2.24875360 0.00000000 0.00000000 0.00000000
1.02820264 0.98687915 0.43120888 0.00000000 0.00000000 0.00000000
0.08113019 1.43534860 1.20146704 0.00000000 0.00000000 0.00000000
0.23575639 1.10372520 1.39833865 0.00000000 0.00000000 0.00000000
-1.15854224 1.07953993 1.91716403 0.00000000 0.00000000 0.00000000
-0.37725407 1.53706969 1.53636526 0.00000000 0.00000000 0.00000000
0.81338765 1.03551548 1.22916901 0.00000000 0.00000000 0.00000000
0.05295139 0.86405756 0.58766076 0.00000000 0.00000000 0.00000000
0.26206963 1.23840117 0.24045670 0.00000000 0.00000000 0.00000000
-0.10310047 1.15554949 1.21324935 0.00000000 0.00000000 0.00000000
0.17900345 0.30938456 1.37465630 0.00000000 0.00000000 0.00000000
-0.17899228 1.42629242 0.91839018 0.00000000 0.00000000 0.00000000
0.46370905 0.87120854 1.60215984 0.00000000 0.00000000 0.00000000
-0.70166501 -0.01796308 0.14862725 0.00000000 0.00000000 0.00000000
-0.12170775 0.29250341 2.15867304 0.00000000 0.00000000 0.00000000
-0.14846265 1.32468088 1.18786703 0.00000000 0.00000000 0.00000000
-0.21504835 0.30234641 1.47779939 0.00000000 0.00000000 0.00000000
0.40876198 0.95531115 1.08370943 0.00000000 0.00000000 0.00000000
-0.15966669 0.83170416 0.76136073 0.00000000 0.00000000 0.00000000
-0.68562100 1.22416640 0.72786524 0.00000000 0.00000000 0.00000000
0.33345743 0.95145418 1.30137136 0.00000000 0.00000000 0.00000000
-0.28063943 1.47613534 1.18262031 0.00000000 0.00000000 0.00000000
0.73889885 0.46249177 1.71695996 0.00000000 0.00000000 0.00000000
-0.24953652 0.52165271 0.54939938 0.00000000 0.00000000 0.00000000
-0.43778129 0.69322521 0.85385739 0.00000000 0.00000000 0.00000000
0.04686305 2.25386021 0.97051934 0.00000000 0.00000000 0.00000000
1.56261165 1.20644624 1.21544892 0.00000000 0.00000000 0.00000000
-0.66923135 1.24876399 0.73917468 0.00000000 0.00000000 0.00000000
1.17106700 1.70825583 1.26589626 0.00000000 0.00000000 0.00000000
-1.03476014 1.19502670 0.32077368 0.00000000 0.00000000 0.00000000
0.09711682 -0.45770860 0.46714564 0.60000000 0.60000000 0.60000000
-0.32732616 1.31939463 1.36211719 0.00000000 0.00000000 0.00000000
-0.44557857 0.83691538 1.18709527 0.00000000 0.00000000 0.00000000
0.63699442 1.04018374 -0.01462940 0.00000000 0.00000000 0.00000000
0.02698921 1.79830009 0.31103185 0.00000000 0.00000000 0.00000000
-0.05278329 0.56633068 0.79244013 0.00000000 0.00000000 0.00000000
0.26200288 0.92038472 2.17069841 0.00000000 0.00000000 0.00000000
-1.09068887 0.81529333 0.81195110 0.00000000 0.00000000 0.00000000
-0.15569989 2.12996249 0.33536352 0.00000000 0.00000000 0.00000000
-1.21437957 0.59814049 0.22227866 0.00000000 0.00000000 0.00000000
-0.52798462 2.13146247 2.16372275 0.00000000 0.00000000 0.00000000
0.05636657 0.97455582 1.20180269 0.00000000 0.00000000 0.00000000
0.11286569 0.48296813 1.23147044 0.00000000 0.00000000 0.00000000
-0.22785858 1.28631968 0.24913266 0.00000000 0.00000000 0.00000000
0.47065160 1.17332273 1.09858358 0.00000000 0.00000000 0.00000000
0.32437662 0.37609478 0.97080424 0.00000000 0.00000000 0.00000000
-0.45041416 -0.05592861 0.78413893 0.00000000 0.00000000 0.00000000
-0.25567721 1.29133964 1.22911039 0.00000000 0.00000000 0.00000000
-0.22307670 0.70858088 0.48244418 0.00000000 0.00000000 0.00000000
-0.19337037 0.60897244 0.44266842 0.00000000 0.00000000 0.00000000
0.22382722 0.66128783 1.58038576 0.00000000 0.00000000 0.00000000
0.09120945 1.01701014 1.10863681 0.00000000 0.00000000 0.00000000
-0.33154918 1.30421273 0.84678431 0.00000000 0.00000000 0.00000000
-0.47941690 1.02725064 1.37209085 0.00000000 0.00000000 0.00000000
-0.44521129 1.95385843 0.40985271 0.00000000 0.00000000 0.00000000
-0.10224469 1.10221743 1.26762964 0.00000000 0.00000000 0.00000000
-0.43276438 0.81216437 1.06680890 0.00000000 0.00000000 0.00000000
-1.05398077 0.86305493 1.60194976 0.00000000 0.00000000 0.00000000
-0.39147102 1.19248647 1.07695374 0.00000000 0.00000000 0.00000000
-0.17062084 1.00052301 0.46518803 0.00000000 0.00000000 0.00000000
-0.48452202 0.80782379 1.60163367 0.00000000 0.00000000 0.00000000
-0.76960425 1.40475793 -0.06591005 0.30000000 0.30000000 0.30000000
-0.62743615 0.98648134 1.50000434 0.00000000 0.00000000 0.00000000
0.14698530 -0.00378368 1.48050499 0.00000000 0.00000000 0.00000000
-0.44105260 1.00129844 1.15865638 0.00000000 0.00000000 0.00000000
0.32179081 0.35577804 1.30520559 0.00000000 0.00000000 0.00000000
-0.59489041 0.91503723 0.32802857 0.00000000 0.00000000 0.00000000
0.96629104 1.28558098 1.05439950 0.00000000 0.00000000 0.00000000
-0.22240914 2.25641737 0.11439808 0.00000000 0.00000000 0.00000000
0.63340015 0.74938228 0.38944513 0.00000000 0.00000000 0.00000000
-1.13485241 1.57839307 -0.15713424 0.30000000 0.30000000 0.30000000
0.21459845 2.23048956 0.35064649 0.00000000 0.00000000 0.00000000
0.49962331 1.47086708 1.23654940 0.00000000 0.00000000 0.00000000
0.60605059 1.63884376 1.68497661 0.00000000 0.00000000 0.00000000
0.78572242 0.90406985 1.65481249 0.00000000 0.00000000 0.00000000
0.45748925 1.70159187 0.19953594 0.00000000 0.00000000 0.00000000
0.75172576 0.37179296 1.23484311 0.00000000 0.00000000 0.00000000
-0.07151321 1.13335254 1.21630013 0.00000000 0.00000000 0.00000000
-0.32828205 0.74530672 1.23684457 0.00000000 0.00000000 0.00000000
-0.16419472 1.80949643 0.38219052 0.00000000 0.00000000 0.00000000
0.32602133 -0.19194105 1.49364600 0.60000000 0.60000000 0.60000000
1.13468889 1.23728250 1.22570383 0.00000000 0.00000000 0.00000000
0.49476014 0.93529156 1.40097658 0.00000000 0.00000000 0.00000000
0.20863402 0.06877415 1.56610545 0.00000000 0.00000000 0.00000000
0.46000234 -0.03836294 0.83341046 0.00000000 0.00000000 0.00000000
-0.05799857 0.29700552 0.80514350 0.00000000 0.00000000 0.00000000
-1.27709460 1.12989603 1.61102853 0.00000000 0.00000000 0.00000000
0.01667295 2.08013458 0.44674500 0.00000000 0.00000000 0.00000000
1.29941221 1.09227245 0.76360929 0.00000000 0.00000000 0.00000000
-0.17412025 1.30883791 1.45978241 0.00000000 0.00000000 0.00000000
0.82098009 1.12385489 0.89900283 0.00000000 0.00000000 0.00000000
-0.09004610 0.70103962 1.18543086 0.00000000 0.00000000 0.00000000
0.61853537 0.62275908 0.87249215 0.00000000 0.00000000 0.00000000
-0.10281334 0.37205158 0.35724628 0.00000000 0.00000000 0.00000000
0.06760887 1.09739492 0.82760386 0.00000000 0.00000000 0.00000000
0.31294109 1.43460967 1.66695723 0.00000000 0.00000000 0.00000000
0.19893680 0.81593039 0.76608711 0.00000000 0.00000000 0.00000000
-0.17239564 0.34314904 0.54254204 0.00000000 0.00000000 0.00000000
-0.01709935 2.06635927 0.62423113 0.00000000 0.00000000 0.00000000
0.85573071 0.77914139 1.21818438 0.00000000 0.00000000 0.00000000
0.51308299 1.62575303 0.46064655 0.00000000 0.00000000 0.00000000
-0.72737108 0.71947440 1.22141406 0.00000000 0.00000000 0.00000000
-0.12723772 -0.10634040 0.88376104 0.60000000 0.60000000 0.60000000
0.22420281 0.89215280 0.94910382 0.00000000 0.00000000 0.00000000
0.24677820 0.68080201 1.19528761 0.00000000 0.00000000 0.00000000
-0.21381367 0.14308766 1.43257158 0.00000000 0.00000000 0.00000000
0.32954641 0.08977595 1.61041083 0.00000000 0.00000000 0.00000000
0.76471839 0.58771932 0.85974437 0.00000000 0.00000000 0.00000000
0.32645186 1.06818443 1.63755802 0.00000000 0.00000000 0.00000000
-0.38833033 0.55486150 0.95584787 0.00000000 0.00000000 0.00000000
-0.49983100 0.44803496 0.59041352 0.00000000 0.00000000 0.00000000
0.60161918 1.04951556 1.82112438 0.00000000 0.00000000 0.00000000
-0.25884814 1.06370573 1.46384969 0.00000000 0.00000000 0.00000000
0.57482976 0.43437556 1.49158255 0.00000000 0.00000000 0.00000000
-0.06630538 0.96731468 0.78215342 0.00000000 0.00000000 0.00000000
0.25911243 1.38958097 0.84105005 0.00000000 0.00000000 0.00000000
-0.06312275 -0.14744747 1.30064156 0.60000000 0.60000000 0.60000000
0.79205424 0.33989516 0.15415616 0.00000000 0.00000000 0.00000000
0.21424296 0.95333547 0.55231479 0.00000000 0.00000000 0.00000000
-0.20626428 1.91462829 0.78921118 0.00000000 0.00000000 0.00000000
-0.67728494 1.35399784 1.36186028 0.00000000 0.00000000 0.00000000
0.28654378 1.06835474 0.77850166 0.00000000 0.00000000 0.00000000
0.07019079 0.77497964 1.04515129 0.00000000 0.00000000 0.00000000
0.27927939 1.16628373 0.55062298 0.00000000 0.00000000 0.00000000
0.74616914 0.53817606 1.04766752 0.00000000 0.00000000 0.00000000
0.76276899 1.34009198 0.98608642 0.00000000 0.00000000 0.00000000
-0.01340954 1.42228553 0.94603319 0.00000000 0.00000000 0.00000000
-0.99021767 0.03182923 0.31582124 0.00000000 0.00000000 0.00000000
-0.61548749 0.97369104 1.22696466 0.00000000 0.00000000 0.00000000
0.15851379 0.51975039 1.52497668 0.00000000 0.00000000 0.00000000
0.30316216 0.81268131 0.20970298 0.00000000 0.00000000 0.00000000
0.68226825 1.74893792 1.20522226 0.00000000 0.00000000 0.00000000
0.07559973 0.53399430 1.33243859 0.00000000 0.00000000 0.00000000
-0.11523057 1.22232875 1.16032758 0.00000000 0.00000000 0.00000000
-0.06603806 1.45898343 0.57410522 0.00000000 0.00000000 0.00000000
-0.49515417 0.16973071 1.18134606 0.00000000 0.00000000 0.00000000
-0.29262158 0.93310226 0.88908826 0.00000000 0.00000000 0.00000000
0.49107556 1.04812930 0.90020594 0.00000000 0.00000000 0.00000000
-0.13212776 1.58378385 1.10720610 0.00000000 0.00000000 0.00000000
0.21447314 0.41503460 1.47386216 0.00000000 0.00000000 0.00000000
0.49274471 1.22519785 0.79835181 0.00000000 0.00000000 0.00000000
0.04454379 0.63496608 1.01811754 0.00000000 0.00000000 0.00000000
0.11297247 1.36037640 1.15867656 0.00000000 0.00000000 0.00000000
0.22442352 1.10013807 1.19814493 0.00000000 0.00000000 0.00000000
1.02160046 1.18265552 0.75421370 0.00000000 0.00000000 0.00000000
-0.03995003 0.60744489 -1.10508769 0.30000000 0.30000000 0.30000000
-0.48406115 -0.10630837 0.21686169 0.60000000 0.60000000 0.60000000
0.24978379 0.59524936 1.71498371 0.00000000 0.00000000 0.00000000
-0.37592477 1.17888607 0.79519481 0.00000000 0.00000000 0.00000000
0.17207881 1.30447163 1.37765540 0.00000000 0.00000000 0.00000000
0.98014261 0.87240870 1.09896707 0.00000000 0.00000000 0.00000000
-0.80042088 0.99894638 2.23033639 0.00000000 0.00000000 0.00000000
0.08145478 0.66337239 1.74519230 0.00000000 0.00000000 0.00000000
0.08173153 0.60148365 1.09302561 0.00000000 0.00000000 0.00000000
-0.42511079 0.71848661 0.61254493 0.00000000 0.00000000 0.00000000
0.32645815 0.93979407 0.79957667 0.00000000 0.00000000 0.00000000
0.81193065 1.38277745 1.83678477 0.00000000 0.00000000 0.00000000
0.63159133 0.50596737 1.94213751 0.00000000 0.00000000 0.00000000
0.66296450 1.59734603 0.53759503 0.00000000 0.00000000 0.00000000
0.19265655 0.85864186 1.62638498 0.00000000 0.00000000 0.00000000
-0.16492920 1.32984792 1.06782982 0.00000000 0.00000000 0.00000000
0.81422862 1.52054249 1.37488657 0.00000000 0.00000000 0.00000000
0.11848861 0.53386157 1.45512773 0.00000000 0.00000000 0.00000000
0.06424139 1.34923442 0.48543116 0.00000000 0.00000000 0.00000000
-0.85064136 0.92420155 1.26645407 0.00000000 0.00000000 0.00000000
-0.05851669 1.19210963 0.85514900 0.00000000 0.00000000 0.00000000
0.95674020 1.25289260 0.21701981 0.00000000 0.00000000 0.00000000
-0.07737195 0.89696698 0.26292556 0.00000000 0.00000000 0.00000000
-0.12999743 1.82764370 1.69474598 0.00000000 0.00000000 0.00000000
1.12224617 1.12702013 0.51897492 0.00000000 0.00000000 0.00000000
0.47454025 1.35371121 1.29217141 0.00000000 0.00000000 0.00000000
0.20048084 0.76506343 1.03795892 0.00000000 0.00000000 0.00000000
0.37799238 1.73101057 0.98750048 0.00000000 0.00000000 0.00000000
0.23961212 0.44369929 1.71151091 0.00000000 0.00000000 0.00000000
-0.01630807 1.02383627 1.07065082 0.00000000 0.00000000 0.00000000
-0.88816041 1.46319475 0.80454264 0.00000000 0.00000000 0.00000000
0.15632483 -0.06377338 0.73891292 0.00000000 0.00000000 0.00000000
0.92166227 0.76887530 0.84071992 0.00000000 0.00000000 0.00000000
0.23734230 1.44278320 0.52660406 0.00000000 0.00000000 0.00000000
-0.92316368 1.52725194 1.49998059 0.00000000 0.00000000 0.00000000
-0.00857041 1.29951757 0.89538535 0.00000000 0.00000000 0.00000000
-0.42925663 1.27079526 -0.36033564 0.30000000 0.30000000 0.30000000
-0.72357975 -0.16211348 1.87921830 0.60000000 0.60000000 0.60000000
-0.72786274 1.09865751 0.49049885 0.00000000 0.00000000 0.00000000
0.03488424 1.40040414 1.62253868 0.00000000 0.00000000 0.00000000
-0.06967489 -0.32019326 1.40619220 0.60000000 0.60000000 0.60000000
0.33552273 0.68217891 0.98387491 0.00000000 0.00000000 0.00000000
-0.32815185 1.25594171 1.47882098 0.00000000 0.00000000 0.00000000
0.30495179 1.21853888 1.10699414 0.00000000 0.00000000 0.00000000
-0.51188226 1.01509240 0.91768802 0.00000000 0.00000000 0.00000000
0.62144744 1.68151792 1.08032338 0.00000000 0.00000000 0.00000000
-0.66789984 0.77197548 0.10400611 0.00000000 0.00000000 0.00000000
0.27043842 1.16943574 0.79081281 0.00000000 0.00000000 0.00000000
-0.45977626 1.38008780 1.25151370 0.00000000 0.00000000 0.00000000
0.51295342 0.40187977 0.73813950 0.00000000 0.00000000 0.00000000
0.40416417 0.48727603 1.51847431 0.00000000 0.00000000 0.00000000
-0.59864593 0.78139092 1.37705048 0.00000000 0.00000000 0.00000000
-0.67640409 1.55004617 0.45834988 0.00000000 0.00000000 0.00000000
-0.34698638 1.14460295 1.57428740 0.00000000 0.00000000 0.00000000
-0.50480331 0.55878220 1.23516887 0.00000000 0.00000000 0.00000000
-0.08241284 0.46303950 1.08259820 0.00000000 0.00000000 0.00000000
0.89567026 -0.40087186 0.58189303 0.60000000 0.60000000 0.60000000
0.43712072 0.43811678 0.57379695 0.00000000 0.00000000 0.00000000
-0.33060393 0.77019680 1.12459650 0.00000000 0.00000000 0.00000000
-0.59693993 0.88456391 0.86736699 0.00000000 0.00000000 0.00000000
-1.01828729 0.67060036 0.30346440 0.00000000 0.00000000 0.00000000
-0.39153503 0.44008160 1.50598883 0.00000000 0.00000000 0.00000000
-0.15042439 1.18478460 0.76136041 0.00000000 0.00000000 0.00000000
0.12171795 0.93868638 1.18453505 0.00000000 0.00000000 0.00000000
0.37865308 0.67618493 1.28856614 0.00000000 0.00000000 0.00000000
0.17455715 1.49709704 0.90685363 0.00000000 0.00000000 0.00000000
0.57889338 0.30158729 0.36676654 0.00000000 0.00000000 0.00000000
-0.66237287 1.20036801 1.47274753 0.00000000 0.00000000 0.00000000
0.07440162 0.40630775 0.37645384 0.00000000 0.00000000 0.00000000
0.63792885 0.30718338 1.42435441 0.00000000 0.00000000 0.00000000
-0.07432689 1.34651311 0.65876748 0.00000000 0.00000000 0.00000000
-0.14245815 1.04884146 1.56251416 0.00000000 0.00000000 0.00000000
-0.46565708 0.80722349 1.04011865 0.00000000 0.00000000 0.00000000
0.11464918 0.77546339 1.04397262 0.00000000 0.00000000 0.00000000
0.70558017 0.94793469 1.13068493 0.00000000 0.00000000 0.00000000
-0.08027496 1.21713539 0.96108677 0.00000000 0.00000000 0.00000000
-0.27776625 0.33052480 1.20617524 0.00000000 0.00000000 0.00000000
-0.46116586 1.87829562 1.28418319 0.00000000 0.00000000 0.00000000
0.08606951 0.80807356 -0.29782482 0.30000000 0.30000000 0.30000000
-0.16287750 0.45783008 2.08924947 0.00000000 0.00000000 0.00000000
0.52937887 0.96215317 0.81575180 0.00000000 0.00000000 0.00000000
0.46962366 1.26303576 0.52599726 0.00000000 0.00000000 0.00000000
0.15148149 0.70383184 0.11517239 0.00000000 0.00000000 0.00000000
0.32029173 0.78176457 1.30070087 0.00000000 0.00000000 0.00000000
-0.57646713 0.92851003 1.11228648 0.00000000 0.00000000 0.00000000
0.27778829 0.99461884 0.88408847 0.00000000 0.00000000 0.00000000
0.17979103 1.88022664 0.66527312 0.00000000 0.00000000 0.00000000
0.61279106 1.56558585 0.20067974 0.00000000 0.00000000 0.00000000
0.12714423 0.90073246 -0.08534378 0.30000000 0.30000000 0.30000000
-0.98201250 1.40322136 0.58348091 0.00000000 0.00000000 0.00000000
0.04812309 1.17437733 1.45762863 0.00000000 0.00000000 0.00000000
-0.04371899 1.25225992 0.55772682 0.00000000 0.00000000 0.00000000
-0.24901132 0.61306843 1.19713422 0.00000000 0.00000000 0.00000000
0.03606208 1.25048211 1.10001175 0.00000000 0.00000000 0.00000000
-0.82099993 1.32661534 2.29926431 0.00000000 0.00000000 0.00000000
-0.98586788 1.48295132 1.08553681 0.00000000 0.00000000 0.00000000
-0.58442705 0.58388144 1.31761105 0.00000000 0.00000000 0.00000000
-0.58449342 1.13016859 1.57041284 0.00000000 0.00000000 0.00000000
0.43051369 1.05064866 1.55294366 0.00000000 0.00000000 0.00000000
0.23803846 0.70680371 1.53588364 0.00000000 0.00000000 0.00000000
-0.23586446 1.77616602 1.63846132 0.00000000 0.00000000 0.00000000
-0.21745597 1.52843982 0.45744646 0.00000000 0.00000000 0.00000000
-0.67141770 0.61209980 1.04876511 0.00000000 0.00000000 0.00000000
0.60793120 1.42994477 1.05826487 0.00000000 0.00000000 0.00000000
0.29562078 0.71363426 0.25206853 0.00000000 0.00000000 0.00000000
-0.19568012 0.05758500 0.72139953 0.00000000 0.00000000 0.00000000
0.57827037 1.52554457 1.68628046 0.00000000 0.00000000 0.00000000
0.23958146 1.18256160 2.28285304 0.00000000 0.00000000 0.00000000
0.41686155 1.48643630 1.12106096 0.00000000 0.00000000 0.00000000
0.42562419 1.07221328 1.11364448 0.00000000 0.00000000 0.00000000
-0.46254560 0.62474641 1.37113951 0.00000000 0.00000000 0.00000000
0.35462864 0.20137568 1.46844932 0.00000000 0.00000000 0.00000000
0.21922383 0.85803053 1.17265156 0.00000000 0.00000000 0.00000000
-0.58374125 0.95766166 1.83961567 0.00000000 0.00000000 0.00000000
-0.97035583 0.67951391 0.59066780 0.00000000 0.00000000 0.00000000
0.36357196 0.47942070 1.24887523 0.00000000 0.00000000 0.00000000
0.05818838 0.46706424 1.30219775 0.00000000 0.00000000 0.00000000
0.17943832 1.90238015 1.58137519 0.00000000 0.00000000 0.00000000
0.06865188 0.88078307 0.93935714 0.00000000 0.00000000 0.00000000
0.18730593 0.35280273 0.79309060 0.00000000 0.00000000 0.00000000
-0.31020595 1.10565320 1.50599032 0.00000000 0.00000000 0.00000000
-0.80161729 1.27299770 0.97445964 0.00000000 0.00000000 0.00000000
-1.48293340 0.69955885 1.22223606 0.00000000 0.00000000 0.00000000
-0.31525903 1.67495169 1.10752823 0.00000000 0.00000000 0.00000000
-0.18243155 2.29239324 0.84901247 0.00000000 0.00000000 0.00000000
-0.45549845 1.59890152 0.54810050 0.00000000 0.00000000 0.00000000
0.39954100 1.86030623 0.82015201 0.00000000 0.00000000 0.00000000
-0.09993638 0.92431776 1.19166667 0.00000000 0.00000000 0.00000000
-0.06989944 0.05283167 0.75718737 0.00000000 0.00000000 0.00000000
-0.90436743 0.68532319 0.48384074 0.00000000 0.00000000 0.00000000
-0.83690027 0.44005306 1.37389811 0.00000000 0.00000000 0.00000000
0.77950886 1.55089627 0.23687635 0.00000000 0.00000000 0.00000000
-0.44940608 0.81890806 0.23848238 0.00000000 0.00000000 0.00000000
0.38039934 0.54949138 -1.45603173 0.30000000 0.30000000 0.30000000
-0.21623159 1.53073256 -0.42408087 0.30000000 0.30000000 0.30000000
-0.21925860 0.49410132 -1.40534224 0.30000000 0.30000000 0.30000000
0.82634372 0.72917811 -0.49940754 0.30000000 0.30000000 0.30000000
-1.38828086 0.83439396 -1.11656629 0.30000000 0.30000000 0.30000000
-0.12411314 0.22381854 -1.24387996 0.30000000 0.30000000 0.30000000
0.52989167 1.47474362 -0.46066580 0.30000000 0.30000000 0.30000000
-0.01638616 0.85264498 -1.01833318 0.30000000 0.30000000 0.30000000
0.18770392 1.67702695 -1.12410529 0.30000000 0.30000000 0.30000000
0.67681465 1.31363658 -0.94361340 0.30000000 0.30000000 0.30000000
-0.44213191 1.44601810 -1.26968588 0.30000000 0.30000000 0.30000000
0.49642638 1.60255561 -0.47202212 0.30000000 0.30000000 0.30000000
-0.13680806 0.80747936 -1.70940553 0.30000000 0.30000000 0.30000000
-0.08700507 0.81095525 -1.56586948 0.30000000 0.30000000 0.30000000
0.53398913 0.80016139 -1.06874668 0.30000000 0.30000000 0.30000000
-0.00361015 1.02849598 -1.11596176 0.30000000 0.30000000 0.30000000
0.00672693 0.58306558 -0.19546436 0.30000000 0.30000000 0.30000000
0.09185352 0.48902619 -1.11089885 0.30000000 0.30000000 0.30000000
0.05939295 1.42604410 0.15020277 0.00000000 0.00000000 0.00000000
0.88786141 2.23898035 -0.07850695 0.30000000 0.30000000 0.30000000
0.22751597 1.18121837 -2.21890024 0.30000000 0.30000000 0.30000000
-0.18976190 1.34549675 -0.79813834 0.30000000 0.30000000 0.30000000
0.17737293 0.93640579 -0.41836070 0.30000000 0.30000000 0.30000000
0.11175289 1.61457278 -1.46495590 0.30000000 0.30000000 0.30000000
-0.17697270 0.79892341 -0.77816475 0.30000000 0.30000000 0.30000000
-0.29729400 0.86709611 -1.54485866 0.30000000 0.30000000 0.30000000
0.03158214 1.96039966 -1.03998394 0.30000000 0.30000000 0.30000000
-0.92549066 0.11278072 -0.92929270 0.30000000 0.30000000 0.30000000
0.49277747 0.82721773 -0.12601159 0.30000000 0.30000000 0.30000000
0.54092458 1.44463011 -0.27808449 0.30000000 0.30000000 0.30000000
0.05789431 1.52980444 -1.18663233 0.30000000 0.30000000 0.30000000
0.57625547 0.40831753 -0.48732466 0.30000000 0.30000000 0.30000000
0.27521408 1.45060711 -0.97942076 0.30000000 0.30000000 0.30000000
0.87054178 1.10821449 -0.41675896 0.30000000 0.30000000 0.30000000
-0.16965981 0.09686296 -1.29593576 0.30000000 0.30000000 0.30000000
1.49766920 0.65883814 -0.85953372 0.30000000 0.30000000 0.30000000
0.41476539 1.24888453 -0.28782172 0.30000000 0.30000000 0.30000000
-0.68631724 1.57972654 -0.18124769 0.30000000 0.30000000 0.30000000
-0.13154230 0.26744834 -1.61234948 0.30000000 0.30000000 0.30000000
-0.50115757 0.16687615 -1.89352104 0.30000000 0.30000000 0.30000000
-0.94227259 0.72953329 -1.42133524 0.30000000 0.30000000 0.30000000
0.65351237 0.90335945 -1.65573234 0.30000000 0.30000000 0.30000000
0.05692205 0.37704713 -2.21426999 0.30000000 0.30000000 0.30000000
-0.04290621 0.86431176 -1.01033297 0.30000000 0.30000000 0.30000000
0.19842457 1.91788704 -1.11520159 0.30000000 0.30000000 0.30000000
0.32064896 0.97560524 -0.53944657 0.30000000 0.30000000 0.30000000
0.02422633 0.37567617 -0.63205627 0.30000000 0.30000000 0.30000000
-0.14354865 1.55307090 -1.53729268 0.30000000 0.30000000 0.30000000
1.08974986 2.32049189 -0.86916945 0.30000000 0.30000000 0.30000000
0.49408393 1.68444751 -1.28156761 0.30000000 0.30000000 0.30000000
-0.35515554 1.11838356 -0.69105406 0.30000000 0.30000000 0.30000000
-0.45424182 1.58175763 -0.96790419 0.30000000 0.30000000 0.30000000
-0.48613976 0.75651197 -1.94365882 0.30000000 0.30000000 0.30000000
-0.04522884 0.43186245 -0.86679194 0.30000000 0.30000000 0.30000000
0.70295160 0.78334377 -1.00309526 0.30000000 0.30000000 0.30000000
-0.03869139 0.59007527 -1.76656184 0.30000000 0.30000000 0.30000000
-0.17401665 1.18114070 -1.25783706 0.30000000 0.30000000 0.30000000
-0.02640990 1.17108552 -0.84785746 0.30000000 0.30000000 0.30000000
-0.10572180 1.10691578 -0.76817065 0.30000000 0.30000000 0.30000000
-0.24974423 1.37772434 -1.81206815 0.30000000 0.30000000 0.30000000
-0.30067784 1.05950831 -0.50087359 0.30000000 0.30000000 0.30000000
0.30398805 0.79342696 -1.30229389 0.30000000 0.30000000 0.30000000
-0.02804002 -0.16114554 -0.93533411 0.90000000 0.90000000 0.90000000
0.16916946 1.04879753 -0.61769387 0.30000000 0.30000000 0.30000000
0.07897604 0.76571089 -1.57286007 0.30000000 0.30000000 0.30000000
0.20474155 1.45652876 -0.15517957 0.30000000 0.30000000 0.30000000
-1.04303730 0.76189720 -1.94164798 0.30000000 0.30000000 0.30000000
-0.05511477 0.61121552 0.32801206 0.00000000 0.00000000 0.00000000
0.40658302 1.12898342 -1.23448329 0.30000000 0.30000000 0.30000000
-1.14980424 0.82025702 -1.67892708 0.30000000 0.30000000 0.30000000
-0.10944939 1.56210692 -0.39543619 0.30000000 0.30000000 0.30000000
0.15158717 0.60593616 -0.42186325 0.30000000 0.30000000 0.30000000
0.38479633 0.62749080 -0.93495289 0.30000000 0.30000000 0.30000000
0.57133922 0.65236712 -1.25604510 0.30000000 0.30000000 0.30000000
-0.40411401 0.57999475 -1.50567620 0.30000000 0.30000000 0.30000000
0.66471847 1.32798363 -1.29956599 0.30000000 0.30000000 0.30000000
0.20178231 1.89708353 -0.40597222 0.30000000 0.30000000 0.30000000
-0.86166413 0.56278267 -0.93196952 0.30000000 0.30000000 0.30000000
-0.04537541 0.84461573 -0.37709362 0.30000000 0.30000000 0.30000000
-0.11598862 0.49378729 -0.56089863 0.30000000 0.30000000 0.30000000
0.61744339 1.45705987 -0.95128679 0.30000000 0.30000000 0.30000000
-0.08520352 1.51444002 -1.73159976 0.30000000 0.30000000 0.30000000
0.21668854 1.10277126 -0.46368024 0.30000000 0.30000000 0.30000000
0.33748139 0.70594731 -0.66325144 0.30000000 0.30000000 0.30000000
-0.36039290 1.13276258 -0.97928931 0.30000000 0.30000000 0.30000000
-0.38894130 0.80470015 -0.61613348 0.30000000 0.30000000 0.30000000
0.29996118 1.12149320 -0.74694820 0.30000000 0.30000000 0.30000000
-0.33670072 1.88129358 -1.38000741 0.30000000 0.30000000 0.30000000
0.16357021 0.23882068 -1.47383328 0.30000000 0.30000000 0.30000000
0.63371907 2.09874968 -1.37678750 0.30000000 0.30000000 0.30000000
-0.34730142 0.43916934 -0.54517660 0.30000000 0.30000000 0.30000000
0.35102451 0.34258152 -1.23851752 0.30000000 0.30000000 0.30000000
-0.15678058 1.35371973 -1.22153831 0.30000000 0.30000000 0.30000000
0.23565785 1.70661566 -1.00204472 0.30000000 0.30000000 0.30000000
-1.24877058 0.63774339 -1.81946788 0.30000000 0.30000000 0.30000000
0.28981870 0.36910103 -0.89642331 0.30000000 0.30000000 0.30000000
0.43765000 0.94778509 -1.35980305 0.30000000 0.30000000 0.30000000
-0.25335324 0.51301177 -1.39609136 0.30000000 0.30000000 0.30000000
-0.61228131 -0.25530694 -1.72212630 0.90000000 0.90000000 0.90000000
-0.50504919 1.29120404 -1.82420226 0.30000000 0.30000000 0.30000000
0.57674477 0.39391945 -0.94886328 0.30000000 0.30000000 0.30000000
0.90161360 1.08358366 -1.41728646 0.30000000 0.30000000 0.30000000
-0.01959361 1.07004087 -0.94508385 0.30000000 0.30000000 0.30000000
0.39274491 1.69052692 0.15063245 0.00000000 0.00000000 0.00000000
0.13334085 1.02391655 -1.57783272 0.30000000 0.30000000 0.30000000
0.64755328 0.07058438 -0.48046634 0.30000000 0.30000000 0.30000000
-0.03868184 0.09641259 -0.37946360 0.30000000 0.30000000 0.30000000
-0.71149587 0.89515290 -1.60379892 0.30000000 0.30000000 0.30000000
0.04796293 0.70416584 -0.64836415 0.30000000 0.30000000 0.30000000
0.44392766 1.34341396 -1.36407510 0.30000000 0.30000000 0.30000000
-0.47437715 0.50402941 -1.30947325 0.30000000 0.30000000 0.30000000
-0.42959476 -0.40368571 -1.40462771 0.90000000 0.90000000 0.90000000
0.23336935 0.36539136 -1.83741345 0.30000000 0.30000000 0.30000000
0.32466676 0.45591095 -2.04672383 0.30000000 0.30000000 0.30000000
0.08122305 0.23350680 -0.52269972 0.30000000 0.30000000 0.30000000
-0.08796902 -0.14416931 -0.75896984 0.90000000 0.90000000 0.90000000
-0.11800987 1.26554977 -1.21571917 0.30000000 0.30000000 0.30000000
-0.19994874 1.61714389 -1.41058890 0.30000000 0.30000000 0.30000000
-0.13317709 1.65119523 -1.09326686 0.30000000 0.30000000 0.30000000
-0.09476532 1.25686543 -1.15056577 0.30000000 0.30000000 0.30000000
-0.51636706 0.97784268 -1.32755776 0.30000000 0.30000000 0.30000000
0.76937904 1.49283674 -0.77128906 0.30000000 0.30000000 0.30000000
0.75799355 0.30406849 -0.46048435 0.30000000 0.30000000 0.30000000
0.40961646 1.35761965 -0.83049804 0.30000000 0.30000000 0.30000000
0.65981116 0.50078151 -1.46756835 0.30000000 0.30000000 0.30000000
-0.12407161 1.23203654 0.02869029 0.00000000 0.00000000 0.00000000
-0.12133941 1.35503549 -1.42464363 0.30000000 0.30000000 0.30000000
-0.20428237 0.76971176 -1.47294174 0.30000000 0.30000000 0.30000000
-0.06498669 1.13589938 -1.16768616 0.30000000 0.30000000 0.30000000
0.11973876 0.01586960 -0.11918789 0.30000000 0.30000000 0.30000000
0.42515972 1.39519911 -0.85801250 0.30000000 0.30000000 0.30000000
-0.83338742 0.77609047 -0.85880407 0.30000000 0.30000000 0.30000000
0.37277618 1.25571517 0.04741406 0.00000000 0.00000000 0.00000000
0.46058969 1.95063575 -0.98090165 0.30000000 0.30000000 0.30000000
-0.04689638 0.82968413 -1.27818060 0.30000000 0.30000000 0.30000000
0.15613478 1.21424137 -1.46453933 0.30000000 0.30000000 0.30000000
-0.75862483 1.73545597 -1.03499135 0.30000000 0.30000000 0.30000000
0.81375817 0.99464147 -1.13363387 0.30000000 0.30000000 0.30000000
0.73143064 1.27528747 -1.34482895 0.30000000 0.30000000 0.30000000
0.08685444 1.42517915 -0.49536470 0.30000000 0.30000000 0.30000000
-0.35248124 1.33759514 -1.60734320 0.30000000 0.30000000 0.30000000
-0.33663463 0.95520994 -0.40183860 0.30000000 0.30000000 0.30000000
-0.09313789 1.24732837 -1.03986245 0.30000000 0.30000000 0.30000000
-0.14399599 0.88222154 -1.18087230 0.30000000 0.30000000 0.30000000
-0.00692528 1.16989548 -0.96861389 0.30000000 0.30000000 0.30000000
-0.28905017 1.01641901 -1.23194493 0.30000000 0.30000000 0.30000000
-0.06949782 0.37867385 -0.13616315 0.30000000 0.30000000 0.30000000
0.73790713 0.97233692 -0.88284617 0.30000000 0.30000000 0.30000000
-0.79552618 1.59155587 -0.95686409 0.30000000 0.30000000 0.30000000
-0.82301060 1.10556203 -1.58440834 0.30000000 0.30000000 0.30000000
-0.77468273 1.05890900 -1.31631125 0.30000000 0.30000000 0.30000000
-1.03481099 1.17017450 -0.85017758 0.30000000 0.30000000 0.30000000
-0.42737756 1.60836078 -1.02219529 0.30000000 0.30000000 0.30000000
0.15376967 0.14385238 -0.62258390 0.30000000 0.30000000 0.30000000
0.30765332 0.67961932 -0.76524944 0.30000000 0.30000000 0.30000000
0.03125746 1.30041549 -1.98005464 0.30000000 0.30000000 0.30000000
-0.92084392 0.80192066 -0.87224929 0.30000000 0.30000000 0.30000000
0.09316707 0.67552890 -1.05951803 0.30000000 0.30000000 0.30000000
-0.00340547 1.85014272 -0.91431301 0.30000000 0.30000000 0.30000000
-0.00452143 1.13127526 -1.35588556 0.30000000 0.30000000 0.30000000
0.55644433 0.55818723 -1.40799844 0.30000000 0.30000000 0.30000000
0.37078462 1.13359986 -1.38999999 0.30000000 0.30000000 0.30000000
-0.36761583 2.52506011 -0.84237055 0.30000000 0.30000000 0.30000000
-0.12659790 1.41652496 -0.04783216 0.30000000 0.30000000 0.30000000
0.35844057 0.83491292 -1.26137635 0.30000000 0.30000000 0.30000000
0.57890216 0.50000924 -0.67990208 0.30000000 0.30000000 0.30000000
-0.11351158 1.85764689 -1.12192018 0.30000000 0.30000000 0.30000000
0.34848661 1.33209549 -1.51631168 0.30000000 0.30000000 0.30000000
-0.49893888 0.74790176 -0.92931090 0.30000000 0.30000000 0.30000000
0.13391715 1.13068219 -1.23221027 0.30000000 0.30000000 0.30000000
-0.54045248 0.65983220 -1.17113293 0.30000000 0.30000000 0.30000000
0.03299899 1.53038815 -1.03382248 0.30000000 0.30000000 0.30000000
0.07590745 1.94164129 -0.92278757 0.30000000 0.30000000 0.30000000
-0.31027210 0.73990826 0.11472070 0.00000000 0.00000000 0.00000000
-0.10450932 1.09901804 -1.03018072 0.30000000 0.30000000 0.30000000
0.42910847 0.16802458 -1.27981316 0.30000000 0.30000000 0.30000000
-0.54355453 0.48075029 -1.60173066 0.30000000 0.30000000 0.30000000
0.69433638 1.07474791 -0.28231109 0.30000000 0.30000000 0.30000000
0.08025544 1.59526259 -0.69439785 0.30000000 0.30000000 0.30000000
-0.08958383 1.76963827 -2.45049883 0.30000000 0.30000000 0.30000000
-1.31764825 -0.32958213 -1.63765177 0.90000000 0.90000000 0.90000000
0.13759756 0.63599227 -1.98826087 0.30000000 0.30000000 0.30000000
0.18549083 0.88147986 -1.28149155 0.30000000 0.30000000 0.30000000
0.30069682 1.10034207 -1.16347059 0.30000000 0.30000000 0.30000000
-1.03547195 0.58073743 -1.75689055 0.30000000 0.30000000 0.30000000
-0.46851661 1.00953935 -0.78847438 0.30000000 0.30000000 0.30000000
0.31645516 1.09871380 -1.04216121 0.30000000 0.30000000 0.30000000
-0.21876329 1.65403494 -0.74370067 0.30000000 0.30000000 0.30000000
0.66167346 0.31533943 -1.09588998 0.30000000 0.30000000 0.30000000
-0.16201095 0.61753195 -0.92929735 0.30000000 0.30000000 0.30000000
-0.10796708 1.26665855 -1.59691285 0.30000000 0.30000000 0.30000000
0.29753819 0.83949241 -1.37870124 0.30000000 0.30000000 0.30000000
-0.37021085 1.19840204 -0.42374004 0.30000000 0.30000000 0.30000000
0.27187726 1.14315134 -0.30748506 0.30000000 0.30000000 0.30000000
-0.18420938 0.79468058 -1.24672512 0.30000000 0.30000000 0.30000000
0.30535237 0.88933068 -1.66420596 0.30000000 0.30000000 0.30000000
-0.38522804 1.63733841 -1.10145042 0.30000000 0.30000000 0.30000000
0.24978738 0.09285934 -1.09721297 0.30000000 0.30000000 0.30000000
-0.41337883 0.61630988 -0.44798149 0.30000000 0.30000000 0.30000000
0.80408556 1.30856284 -0.98214623 0.30000000 0.30000000 0.30000000
-0.33261178 1.05342541 -0.18882765 0.30000000 0.30000000 0.30000000
-0.15226857 1.02241253 -1.05917573 0.30000000 0.30000000 0.30000000
0.29388867 0.79007449 -1.28186164 0.30000000 0.30000000 0.30000000
0.00949247 1.71571594 -0.90575194 0.30000000 0.30000000 0.30000000
-0.25206346 0.20820857 -1.16165803 0.30000000 0.30000000 0.30000000
-0.41006241 1.60853689 -0.97062919 0.30000000 0.30000000 0.30000000
0.40142130 1.84257709 -0.44069928 0.30000000 0.30000000 0.30000000
0.49542693 0.56942800 -0.88926200 0.30000000 0.30000000 0.30000000
0.25518270 1.27952917 -1.60181560 0.30000000 0.30000000 0.30000000
-0.31537073 1.47128426 -0.60060646 0.30000000 0.30000000 0.30000000
-0.40236298 1.08063179 -1.07804098 0.30000000 0.30000000 0.30000000
0.56581425 1.47542239 -0.97802994 0.30000000 0.30000000 0.30000000
0.60899980 0.15078821 -1.13560429 0.30000000 0.30000000 0.30000000
-0.46045980 0.51653426 -1.00782776 0.30000000 0.30000000 0.30000000
-0.57142378 0.48093381 -1.57013190 0.30000000 0.30000000 0.30000000
-0.27246941 1.43624824 -1.68457005 0.30000000 0.30000000 0.30000000
-0.14424868 0.76180500 -0.29078679 0.30000000 0.30000000 0.30000000
0.35690219 0.99027185 -0.95702983 0.30000000 0.30000000 0.30000000
-0.11091211 1.12751248 -0.96708495 0.30000000 0.30000000 0.30000000
-0.30638697 0.67967728 -1.27241366 0.30000000 0.30000000 0.30000000
0.14160383 0.55554996 -1.19934720 0.30000000 0.30000000 0.30000000
-0.49420721 1.04328726 -1.35814034 0.30000000 0.30000000 0.30000000
-0.05789893 0.96825680 -0.60152043 0.30000000 0.30000000 0.30000000
-0.20807790 1.41260582 -0.71209014 0.30000000 0.30000000 0.30000000
0.40014700 0.89723946 -0.78927901 0.30000000 0.30000000 0.30000000
-0.14399074 1.26428786 -1.73452107 0.30000000 0.30000000 0.30000000
-0.33994231 1.42979934 -1.17440211 0.30000000 0.30000000 0.30000000
-0.56704167 0.69925817 -0.98450781 0.30000000 0.30000000 0.30000000
-0.05876354 0.75832386 -1.18530790 0.30000000 0.30000000 0.30000000
-0.87524036 0.60060244 -0.73119704 0.30000000 0.30000000 0.30000000
-0.50466576 0.80999258 -1.40727147 0.30000000 0.30000000 0.30000000
-0.26331091 0.80810474 -1.07756829 0.30000000 0.30000000 0.30000000
-0.03894945 0.52048052 -1.51646260 0.30000000 0.30000000 0.30000000
0.34157996 0.51106911 -0.95507273 0.30000000 0.30000000 0.30000000
-0.36682109 0.78833393 -0.54555458 0.30000000 0.30000000 0.30000000
0.05008525 0.32681191 -0.39994014 0.30000000 0.30000000 0.30000000
-1.10731858 1.93634812 -0.87275081 0.30000000 0.30000000 0.30000000
-0.08444902 1.76263321 -0.94418015 0.30000000 0.30000000 0.30000000
0.17187601 0.33989161 -1.83681936 0.30000000 0.30000000 0.30000000
0.87868645 1.54599632 -1.62080152 0.30000000 0.30000000 0.30000000
-0.32060142 0.71011112 -0.19394669 0.30000000 0.30000000 0.30000000
-0.03353247 0.43665507 -1.50237879 0.30000000 0.30000000 0.30000000
-0.74226428 0.26010070 -1.16400671 0.30000000 0.30000000 0.30000000
-0.14280894 0.92254665 -1.57329042 0.30000000 0.30000000 0.30000000
0.69201810 1.27965030 -1.24190581 0.30000000 0.30000000 0.30000000
0.13832238 1.86071107 -1.19525789 0.30000000 0.30000000 0.30000000
0.32787202 1.13162129 -1.12500143 0.30000000 0.30000000 0.30000000
0.29952574 1.01768871 -1.26812578 0.30000000 0.30000000 0.30000000
-0.03396971 0.52539042 -1.49309421 0.30000000 0.30000000 0.30000000
-0.10123806 1.56252518 -0.69379266 0.30000000 0.30000000 0.30000000
-0.43925144 1.49426828 -1.44485752 0.30000000 0.30000000 0.30000000
