0.12766870 1.42466719 1.06997245 0.00000000 0.00000000 0.00000000
0.53107154 1.73522834 1.82148578 0.00000000 0.00000000 0.00000000
-0.65581245 1.29311703 1.14068443 0.00000000 0.00000000 0.00000000
0.99252357 0.43327585 2.10595209 0.00000000 0.00000000 0.00000000
0.12264644 0.90508430 0.06525109 0.00000000 0.00000000 0.00000000
0.09353532 1.20901471 0.36900146 0.00000000 0.00000000 0.00000000
0.00745565 1.16398944 1.70338802 0.00000000 0.00000000 0.00000000
-0.03892268 1.53115222 1.40205284 0.00000000 0.00000000 0.00000000
0.22905714 0.31445570 0.44537308 0.00000000 0.00000000 0.00000000
-0.42887480 0.93034152 0.87112360 0.00000000 0.00000000 0.00000000
-0.28006790 1.14732389 0.91554156 0.00000000 0.00000000 0.00000000
0.40049307 1.19779998 1.01307396 0.00000000 0.00000000 0.00000000
0.26861528 0.99651053 0.62757978 0.00000000 0.00000000 0.00000000
-0.10821205 0.74316758 1.64385901 0.00000000 0.00000000 0.00000000
0.62865220 2.34906621 0.77127389 0.00000000 0.00000000 0.00000000
0.36982458 1.37795877 1.37089368 0.00000000 0.00000000 0.00000000
0.01146243 1.78097581 1.40832193 0.00000000 0.00000000 0.00000000
0.00576805 1.43232267 2.35181163 0.00000000 0.00000000 0.00000000
-0.21387729 0.13237765 1.02393746 0.00000000 0.00000000 0.00000000
0.24184899 1.66470411 1.87205734 0.00000000 0.00000000 0.00000000
-0.93860151 0.42391501 -0.31677951 0.30000000 0.30000000 0.30000000
-0.21051694 1.60833600 0.61365270 0.00000000 0.00000000 0.00000000
0.61128918 1.65927200 0.64637977 0.00000000 0.00000000 0.00000000
-0.27457834 0.18569883 0.41267631 0.00000000 0.00000000 0.00000000
0.43346510 1.32283172 0.02044204 0.00000000 0.00000000 0.00000000
-0.45947207 0.81070228 1.30235696 0.00000000 0.00000000 0.00000000
-0.11816934 0.32365964 1.21948335 0.00000000 0.00000000 0.00000000
-0.05864480 0.71149687 0.64665958 0.00000000 0.00000000 0.00000000
-0.45021946 1.20791706 0.99894840 0.00000000 0.00000000 0.00000000
0.07380559 0.89041234 0.54395911 0.00000000 0.00000000 0.00000000
-0.79317146 0.44261626 0.96956792 0.00000000 0.00000000 0.00000000
-1.04074525 1.00939376 0.82132162 0.00000000 0.00000000 0.00000000
-0.02272837 1.41411801 0.57908810 0.00000000 0.00000000 0.00000000
0.28077613 0.74879658 0.30042057 0.00000000 0.00000000 0.00000000
-0.29205587 1.23539890 0.06833917 0.00000000 0.00000000 0.00000000
-0.17540675 1.00148536 1.50644386 0.00000000 0.00000000 0.00000000
0.45186985 1.78914430 1.01806727 0.00000000 0.00000000 0.00000000
-0.53421345 0.58369878 1.22120429 0.00000000 0.00000000 0.00000000
0.08329438 1.75656975 0.77848791 0.00000000 0.00000000 0.00000000
0.11757975 1.39691796 1.36201940 0.00000000 0.00000000 0.00000000
0.54141275 2.05728766 0.87193503 0.00000000 0.00000000 0.00000000
0.29935636 1.10800933 1.50698473 0.00000000 0.00000000 0.00000000
-0.38442632 0.54538652 1.84002580 0.00000000 0.00000000 0.00000000
-0.14003816 1.90394753 1.59502354 0.00000000 0.00000000 0.00000000
-0.63481999 -0.04536100 0.73647661 0.60000000 0.60000000 0.60000000
-0.33544348 0.02114768 1.36061519 0.00000000 0.00000000 0.00000000
-0.41684229 -0.34360460 0.74792240 0.60000000 0.60000000 0.60000000
0.27378808 0.73087754 0.77109350 0.00000000 0.00000000 0.00000000
0.05205404 1.21060681 0.88824886 0.00000000 0.00000000 0.00000000
1.05583406 1.57349984 0.39188391 0.00000000 0.00000000 0.00000000
0.92071292 0.54130105 0.96651080 0.00000000 0.00000000 0.00000000
-0.31891056 1.35635028 1.11024210 0.00000000 0.00000000 0.00000000
-0.28729173 1.13385128 1.45822809 0.00000000 0.00000000 0.00000000
-0.21752809 0.90435352 0.39303077 0.00000000 0.00000000 0.00000000
-0.78447957 1.67108754 0.38883740 0.00000000 0.00000000 0.00000000
0.04902928 1.27976308 1.25841070 0.00000000 0.00000000 0.00000000
0.44141551 -0.32782375 0.52701529 0.60000000 0.60000000 0.60000000
0.34932891 1.33200434 1.66315070 0.00000000 0.00000000 0.00000000
-0.09352604 2.63991660 0.99474616 0.00000000 0.00000000 0.00000000
0.24158687 1.25994745 0.30348337 0.00000000 0.00000000 0.00000000
-0.00649286 1.85950649 0.78859061 0.00000000 0.00000000 0.00000000
-0.91093414 1.58895700 0.65869636 0.00000000 0.00000000 0.00000000
0.64857800 0.82115700 1.05370248 0.00000000 0.00000000 0.00000000
0.97992181 0.76240841 0.94117749 0.00000000 0.00000000 0.00000000
-0.77868811 0.76154967 0.78328246 0.00000000 0.00000000 0.00000000
0.01032042 1.03626422 1.18525227 0.00000000 0.00000000 0.00000000
0.20762505 1.29805030 1.60071525 0.00000000 0.00000000 0.00000000
0.27111582 0.75787140 1.32273919 0.00000000 0.00000000 0.00000000
-1.01612007 0.63200909 2.01415824 0.00000000 0.00000000 0.00000000
-0.19403890 0.22722532 0.30957768 0.00000000 0.00000000 0.00000000
-0.47244348 1.21410913 1.54757079 0.00000000 0.00000000 0.00000000
-0.43469782 1.08839874 0.66689259 0.00000000 0.00000000 0.00000000
-0.44729398 0.65860570 0.80764266 0.00000000 0.00000000 0.00000000
0.05340922 1.27750638 0.94048420 0.00000000 0.00000000 0.00000000
-0.26544570 0.73338294 1.38148173 0.00000000 0.00000000 0.00000000
0.14558785 1.41085099 0.98648661 0.00000000 0.00000000 0.00000000
-0.52851899 1.25393933 1.06780860 0.00000000 0.00000000 0.00000000
-0.96005918 1.29220844 0.35902518 0.00000000 0.00000000 0.00000000
0.16261281 0.88220156 1.58974150 0.00000000 0.00000000 0.00000000
0.19045453 0.92667788 0.91450788 0.00000000 0.00000000 0.00000000
0.40548432 0.61300545 0.92655238 0.00000000 0.00000000 0.00000000
0.01953548 0.33832033 0.60309149 0.00000000 0.00000000 0.00000000
0.23844737 1.19340104 0.98751309 0.00000000 0.00000000 0.00000000
-0.22098103 0.92103670 0.64237858 0.00000000 0.00000000 0.00000000
-0.40379741 1.13804337 0.78446188 0.00000000 0.00000000 0.00000000
-0.03866240 1.50193882 0.99035917 0.00000000 0.00000000 0.00000000
-0.36527530 1.29077451 0.95978085 0.00000000 0.00000000 0.00000000
0.21553473 1.01624671 0.54428846 0.00000000 0.00000000 0.00000000
1.20531426 0.71452641 0.44499850 0.00000000 0.00000000 0.00000000
0.33524837 0.65852526 1.08242605 0.00000000 0.00000000 0.00000000
0.30312386 1.41098607 1.37627045 0.00000000 0.00000000 0.00000000
-0.31822686 0.67718263 1.81947357 0.00000000 0.00000000 0.00000000
-0.14992797 0.84444230 0.56579936 0.00000000 0.00000000 0.00000000
0.33571345 0.80836832 0.64532593 0.00000000 0.00000000 0.00000000
0.07398228 0.43000510 1.25363483 0.00000000 0.00000000 0.00000000
1.00098184 0.46347130 0.28490854 0.00000000 0.00000000 0.00000000
-0.33425829 0.27155138 1.84197784 0.00000000 0.00000000 0.00000000
0.43739984 1.75468161 0.94632906 0.00000000 0.00000000 0.00000000
0.34622335 0.46945269 1.25923647 0.00000000 0.00000000 0.00000000
0.22945560 0.63994702 1.68731859 0.00000000 0.00000000 0.00000000
-0.05105449 0.96031380 0.94994449 0.00000000 0.00000000 0.00000000
0.11848462 1.47850352 1.16608675 0.00000000 0.00000000 0.00000000
0.20338062 1.17925760 0.87959742 0.00000000 0.00000000 0.00000000
0.46314675 1.48217003 0.29573753 0.00000000 0.00000000 0.00000000
0.37604522 0.69853327 1.47300127 0.00000000 0.00000000 0.00000000
0.12698071 1.65103426 0.92722520 0.00000000 0.00000000 0.00000000
-0.08798052 1.09724073 1.84674119 0.00000000 0.00000000 0.00000000
-0.07827995 1.59798132 1.08743302 0.00000000 0.00000000 0.00000000
0.02300010 0.77526572 0.89693075 0.00000000 0.00000000 0.00000000
-0.70798973 0.19383161 1.56453017 0.00000000 0.00000000 0.00000000
-0.50312835 1.33443147 0.57655020 0.00000000 0.00000000 0.00000000
-0.34121786 1.07076671 -0.02683900 0.30000000 0.30000000 0.30000000
0.32285904 1.27556361 0.94191695 0.00000000 0.00000000 0.00000000
0.14086974 1.01206421 1.30872909 0.00000000 0.00000000 0.00000000
0.25666097 0.92411117 0.96802789 0.00000000 0.00000000 0.00000000
-0.77514445 0.72888888 0.16016023 0.00000000 0.00000000 0.00000000
-0.13285906 1.70891671 0.05806217 0.00000000 0.00000000 0.00000000
0.13362379 1.06117412 0.85279478 0.00000000 0.00000000 0.00000000
-0.00933403 2.14214452 0.74480021 0.00000000 0.00000000 0.00000000
0.16181253 0.67466976 0.70039862 0.00000000 0.00000000 0.00000000
0.43232471 1.21215567 1.50709371 0.00000000 0.00000000 0.00000000
-0.27904555 0.92573748 0.97129346 0.00000000 0.00000000 0.00000000
0.23514717 0.85836715 0.24609555 0.00000000 0.00000000 0.00000000
-0.03136355 0.51987356 0.39041561 0.00000000 0.00000000 0.00000000
0.35469097 0.80069368 1.39932642 0.00000000 0.00000000 0.00000000
0.18031796 0.73071059 0.29391175 0.00000000 0.00000000 0.00000000
-0.10746175 1.34956956 1.10742449 0.00000000 0.00000000 0.00000000
-0.56328920 2.11611062 0.55551566 0.00000000 0.00000000 0.00000000
0.19571583 0.91558468 -0.15945036 0.30000000 0.30000000 0.30000000
0.68836246 0.78837021 0.87871191 0.00000000 0.00000000 0.00000000
0.51178914 0.51801676 -0.27716894 0.30000000 0.30000000 0.30000000
-0.27244310 1.70694998 0.70415674 0.00000000 0.00000000 0.00000000
0.21328391 1.46021207 0.69635218 0.00000000 0.00000000 0.00000000
-0.27266190 0.84490333 2.89216132 0.00000000 0.00000000 0.00000000
0.30502535 1.33185112 0.79393490 0.00000000 0.00000000 0.00000000
-0.23785950 0.82889992 0.23631112 0.00000000 0.00000000 0.00000000
-0.74855084 1.08699433 1.89546448 0.00000000 0.00000000 0.00000000
-0.79957487 0.54009136 0.68281325 0.00000000 0.00000000 0.00000000
-0.79636443 1.03347583 0.79973192 0.00000000 0.00000000 0.00000000
-0.58110535 0.75773043 1.51450540 0.00000000 0.00000000 0.00000000
-0.76253602 1.16781604 0.47094650 0.00000000 0.00000000 0.00000000
-0.25045616 0.41457185 1.29247646 0.00000000 0.00000000 0.00000000
-0.07782728 0.56209502 1.48456944 0.00000000 0.00000000 0.00000000
0.17502459 0.80445931 0.97508826 0.00000000 0.00000000 0.00000000
-0.08817236 1.77833651 1.40806713 0.00000000 0.00000000 0.00000000
-0.62265058 2.09248246 0.84555774 0.00000000 0.00000000 0.00000000
0.29651942 0.96376725 1.23772353 0.00000000 0.00000000 0.00000000
0.87779035 0.77308644 1.00942037 0.00000000 0.00000000 0.00000000
0.36601224 1.82264437 1.01369465 0.00000000 0.00000000 0.00000000
-0.06215884 1.17695988 0.36575803 0.00000000 0.00000000 0.00000000
-0.14797177 0.26820315 1.97868521 0.00000000 0.00000000 0.00000000
-0.19033449 0.77781463 1.50265484 0.00000000 0.00000000 0.00000000
0.35290101 1.07411992 0.02964306 0.00000000 0.00000000 0.00000000
-0.63632453 1.95903640 0.72207268 0.00000000 0.00000000 0.00000000
0.38796995 0.89928319 1.50541878 0.00000000 0.00000000 0.00000000
0.72750534 0.79597128 1.35303224 0.00000000 0.00000000 0.00000000
-0.78039785 -0.01044261 0.36981711 0.60000000 0.60000000 0.60000000
0.24263759 0.80889020 1.12724771 0.00000000 0.00000000 0.00000000
-0.03572689 0.73025650 1.34133982 0.00000000 0.00000000 0.00000000
0.51941530 1.23139360 1.05939382 0.00000000 0.00000000 0.00000000
0.81410342 0.34589262 2.02589414 0.00000000 0.00000000 0.00000000
-0.24962158 0.09458614 0.59516824 0.00000000 0.00000000 0.00000000
0.06087877 1.02978261 1.42222573 0.00000000 0.00000000 0.00000000
-0.21421393 2.02414379 0.00921831 0.30000000 0.30000000 0.30000000
-0.41862383 1.84381549 2.08371513 0.00000000 0.00000000 0.00000000
-0.56844271 1.24845256 0.88598661 0.00000000 0.00000000 0.00000000
-0.17017182 1.62333120 1.21485254 0.00000000 0.00000000 0.00000000
-0.33403426 0.50812924 1.35422273 0.00000000 0.00000000 0.00000000
0.24827603 0.52563326 0.63740893 0.00000000 0.00000000 0.00000000
-0.33469758 1.70468435 1.38610098 0.00000000 0.00000000 0.00000000
-0.82211401 1.05669032 1.85679236 0.00000000 0.00000000 0.00000000
0.26785274 0.41238518 1.18065227 0.00000000 0.00000000 0.00000000
-0.05776168 -0.55462025 0.87858935 0.60000000 0.60000000 0.60000000
-0.90991634 0.31261385 -0.02230105 0.30000000 0.30000000 0.30000000
0.79415610 1.29266465 1.29240324 0.00000000 0.00000000 0.00000000
-0.18004300 0.73592981 0.79059722 0.00000000 0.00000000 0.00000000
0.64358432 0.55607612 0.73698000 0.00000000 0.00000000 0.00000000
0.58643934 0.43756220 0.21084642 0.00000000 0.00000000 0.00000000
0.60586357 1.71265456 1.19310371 0.00000000 0.00000000 0.00000000
-0.37863578 1.05443183 0.95723068 0.00000000 0.00000000 0.00000000
0.91685749 1.32343653 0.28479441 0.00000000 0.00000000 0.00000000
-0.73700663 0.71702036 1.67919341 0.00000000 0.00000000 0.00000000
0.16259381 1.39420537 0.25305233 0.00000000 0.00000000 0.00000000
-0.59125263 0.92643467 1.94177630 0.00000000 0.00000000 0.00000000
0.28706813 0.83076535 0.99268605 0.00000000 0.00000000 0.00000000
0.31966507 0.89795079 1.52879175 0.00000000 0.00000000 0.00000000
-0.26235955 1.55146627 0.32704893 0.00000000 0.00000000 0.00000000
-0.61799543 0.98399288 1.32858082 0.00000000 0.00000000 0.00000000
0.01029649 1.13619697 1.71876218 0.00000000 0.00000000 0.00000000
0.30447830 0.56247207 0.59262654 0.00000000 0.00000000 0.00000000
-0.74181105 0.45190162 -0.24321027 0.30000000 0.30000000 0.30000000
-0.24687105 1.14920585 0.64119197 0.00000000 0.00000000 0.00000000
1.12085338 0.79926658 0.95339173 0.00000000 0.00000000 0.00000000
0.18898804 0.94342130 0.01554759 0.00000000 0.00000000 0.00000000
0.25985487 0.01683756 1.62935701 0.60000000 0.60000000 0.60000000
0.08574927 1.29166546 1.18755171 0.00000000 0.00000000 0.00000000
-0.17533611 0.48536447 1.32893819 0.00000000 0.00000000 0.00000000
-0.30180090 1.23887087 1.52469947 0.00000000 0.00000000 0.00000000
0.26976481 0.50568148 1.11680383 0.00000000 0.00000000 0.00000000
-0.70719006 0.29241015 0.89244526 0.00000000 0.00000000 0.00000000
0.17117318 1.06648621 0.37894660 0.00000000 0.00000000 0.00000000
-0.31990254 1.25446315 1.34114533 0.00000000 0.00000000 0.00000000
-0.30574606 1.35947005 0.88617869 0.00000000 0.00000000 0.00000000
-0.61433629 0.09252007 1.52187745 0.00000000 0.00000000 0.00000000
0.37199883 1.38058794 1.16428649 0.00000000 0.00000000 0.00000000
0.84544418 0.34522312 1.76258853 0.00000000 0.00000000 0.00000000
-0.75568611 0.93212765 0.71231515 0.00000000 0.00000000 0.00000000
1.06738867 1.19793688 0.71830039 0.00000000 0.00000000 0.00000000
0.46407326 0.68870412 -0.00014550 0.00000000 0.00000000 0.00000000
-0.55517932 1.19858273 0.77989254 0.00000000 0.00000000 0.00000000
0.18567839 1.24745582 0.75255088 0.00000000 0.00000000 0.00000000
0.20393269 1.36997615 1.13897208 0.00000000 0.00000000 0.00000000
-0.35667516 1.33468326 1.15705980 0.00000000 0.00000000 0.00000000
0.40263190 1.03710883 0.30824202 0.00000000 0.00000000 0.00000000
0.52344182 1.08986719 0.83081428 0.00000000 0.00000000 0.00000000
-0.93019388 1.75088410 0.55381714 0.00000000 0.00000000 0.00000000
0.27403668 0.10269146 1.39946959 0.00000000 0.00000000 0.00000000
0.75974710 0.00851004 0.62710292 0.60000000 0.60000000 0.60000000
0.14180119 1.12684997 0.84255880 0.00000000 0.00000000 0.00000000
-0.69667565 0.74611091 1.06362720 0.00000000 0.00000000 0.00000000
-0.57415053 1.43137087 0.87787513 0.00000000 0.00000000 0.00000000
0.46075864 1.24488572 0.98911878 0.00000000 0.00000000 0.00000000
0.46401744 1.27348041 0.86344319 0.00000000 0.00000000 0.00000000
0.57052028 1.37398335 0.52167391 0.00000000 0.00000000 0.00000000
-1.04857517 0.21221035 0.72888077 0.00000000 0.00000000 0.00000000
-0.16892875 0.37876975 1.49518899 0.00000000 0.00000000 0.00000000
0.78537157 1.12195503 1.32115600 0.00000000 0.00000000 0.00000000
-0.10939120 0.75179468 1.27453154 0.00000000 0.00000000 0.00000000
0.19774297 1.43588318 1.67992298 0.00000000 0.00000000 0.00000000
-0.59967976 0.68925689 1.59979045 0.00000000 0.00000000 0.00000000
-0.07713920 0.35773803 1.19186667 0.00000000 0.00000000 0.00000000
0.60142055 0.91771094 0.65082144 0.00000000 0.00000000 0.00000000
-0.67505632 0.78042413 1.31817127 0.00000000 0.00000000 0.00000000
-0.28829868 0.81744053 1.56540890 0.00000000 0.00000000 0.00000000
-0.15891173 0.66928608 0.87991402 0.00000000 0.00000000 0.00000000
0.45904835 0.70642362 1.04870756 0.00000000 0.00000000 0.00000000
-0.34524640 0.19618193 1.63326829 0.00000000 0.00000000 0.00000000
-0.84142506 1.26613360 1.16160150 0.00000000 0.00000000 0.00000000
-0.49218535 1.39610571 0.95408859 0.00000000 0.00000000 0.00000000
0.07379875 1.23286297 1.91584793 0.00000000 0.00000000 0.00000000
0.13261413 0.42975001 1.04875036 0.00000000 0.00000000 0.00000000
-0.63244942 0.99094914 1.79613702 0.00000000 0.00000000 0.00000000
-0.24816471 1.07870734 1.48919763 0.00000000 0.00000000 0.00000000
0.26257214 0.73603797 0.43472372 0.00000000 0.00000000 0.00000000
-0.38613361 1.22170781 1.42829373 0.00000000 0.00000000 0.00000000
-0.07293051 1.23009933 1.13867290 0.00000000 0.00000000 0.00000000
-0.21899925 1.09317267 1.77453713 0.00000000 0.00000000 0.00000000
1.19520022 -0.55052599 1.51725851 0.60000000 0.60000000 0.60000000
-0.01041712 -0.44490908 1.01736451 0.60000000 0.60000000 0.60000000
-0.35574403 1.04243813 1.54567790 0.00000000 0.00000000 0.00000000
-0.05152451 0.68389909 1.24953272 0.00000000 0.00000000 0.00000000
-0.91263683 1.85369679 0.85202602 0.00000000 0.00000000 0.00000000
-0.38023068 2.21942705 0.30059781 0.00000000 0.00000000 0.00000000
0.35401696 1.29626386 0.81019836 0.00000000 0.00000000 0.00000000
-0.39744942 1.69417391 0.87224567 0.00000000 0.00000000 0.00000000
0.64827180 0.83816513 1.28055450 0.00000000 0.00000000 0.00000000
-0.41007428 1.03959368 0.02779820 0.00000000 0.00000000 0.00000000
1.03592008 1.49617517 0.77577946 0.00000000 0.00000000 0.00000000
0.06354201 0.95615131 1.28704221 0.00000000 0.00000000 0.00000000
-0.45539445 0.17478609 0.92020781 0.00000000 0.00000000 0.00000000
0.33465939 0.30614624 0.29793350 0.00000000 0.00000000 0.00000000
-0.19404938 0.85768065 0.88456371 0.00000000 0.00000000 0.00000000
0.06302978 0.89378839 1.08275945 0.00000000 0.00000000 0.00000000
0.44684096 1.63668969 0.86792693 0.00000000 0.00000000 0.00000000
0.03087447 1.46467203 1.22506128 0.00000000 0.00000000 0.00000000
0.27939048 0.75475651 0.66756995 0.00000000 0.00000000 0.00000000
0.10648147 0.58942382 1.33501873 0.00000000 0.00000000 0.00000000
0.59079837 0.90298938 1.44917555 0.00000000 0.00000000 0.00000000
-0.76207694 1.21594028 0.90634921 0.00000000 0.00000000 0.00000000
0.12745803 1.37794364 0.30402028 0.00000000 0.00000000 0.00000000
0.38936420 1.57730873 0.96199910 0.00000000 0.00000000 0.00000000
-0.12638468 1.50035400 0.76009496 0.00000000 0.00000000 0.00000000
-0.78261757 0.99486448 0.03923700 0.00000000 0.00000000 0.00000000
-0.26073317 0.80516816 0.13714162 0.00000000 0.00000000 0.00000000
0.33999685 1.75742365 1.67245654 0.00000000 0.00000000 0.00000000
0.21377166 0.85851513 1.80276827 0.00000000 0.00000000 0.00000000
-0.30905370 1.02346747 1.03158008 0.00000000 0.00000000 0.00000000
0.43909836 1.26737669 0.17367715 0.00000000 0.00000000 0.00000000
-0.09215367 2.34559342 1.64912334 0.00000000 0.00000000 0.00000000
0.23490214 0.74287388 1.34090720 0.00000000 0.00000000 0.00000000
-0.58797238 1.74413319 -0.11100364 0.30000000 0.30000000 0.30000000
0.31582893 1.15778728 1.51763387 0.00000000 0.00000000 0.00000000
-0.30801077 0.92206042 0.66873481 0.00000000 0.00000000 0.00000000
0.50619298 1.27009511 0.59657541 0.00000000 0.00000000 0.00000000
-0.42108130 0.98827027 1.27499593 0.00000000 0.00000000 0.00000000
-0.38974862 1.76729960 0.30402139 0.00000000 0.00000000 0.00000000
-0.59282001 1.35800454 -0.94379522 0.30000000 0.30000000 0.30000000
0.74274545 1.98361818 -1.12466444 0.30000000 0.30000000 0.30000000
-0.39170758 1.77089930 -0.89141483 0.30000000 0.30000000 0.30000000
-0.45901400 0.98230940 -1.37772594 0.30000000 0.30000000 0.30000000
-1.15479472 0.03015465 -0.30463219 0.30000000 0.30000000 0.30000000
0.15874142 1.22989146 -0.58433441 0.30000000 0.30000000 0.30000000
0.48010374 1.76178820 -0.44172535 0.30000000 0.30000000 0.30000000
-0.17022015 1.41451418 -0.21619025 0.30000000 0.30000000 0.30000000
-0.56097804 1.53727580 -1.41860425 0.30000000 0.30000000 0.30000000
0.78752629 1.23313631 -1.71414414 0.30000000 0.30000000 0.30000000
-0.41192118 1.09934894 -0.44859861 0.30000000 0.30000000 0.30000000
-0.62429338 0.60017765 -0.55275839 0.30000000 0.30000000 0.30000000
0.64397593 0.92987679 -0.56117419 0.30000000 0.30000000 0.30000000
-0.05576137 1.14385333 -0.51340920 0.30000000 0.30000000 0.30000000
0.01168827 1.48829054 -2.11044770 0.30000000 0.30000000 0.30000000
-0.29906169 1.15289753 -1.19301810 0.30000000 0.30000000 0.30000000
-0.00114059 0.89722165 -0.45016442 0.30000000 0.30000000 0.30000000
-0.18839889 1.13893666 -1.44639440 0.30000000 0.30000000 0.30000000
-0.22085616 1.17449871 -1.79661003 0.30000000 0.30000000 0.30000000
0.32087243 0.99681221 -0.91030162 0.30000000 0.30000000 0.30000000
-0.36820934 1.73797129 -1.49525170 0.30000000 0.30000000 0.30000000
-0.63732687 0.67820347 -0.67611433 0.30000000 0.30000000 0.30000000
0.03100772 0.95321836 -0.92560127 0.30000000 0.30000000 0.30000000
-0.85656703 0.15106645 -1.37655209 0.30000000 0.30000000 0.30000000
0.37283041 1.74397765 -1.17830186 0.30000000 0.30000000 0.30000000
-0.09005866 1.14589420 -0.65040052 0.30000000 0.30000000 0.30000000
-0.65031397 2.36524536 -0.40583420 0.30000000 0.30000000 0.30000000
-0.60322737 0.75375719 -1.42451458 0.30000000 0.30000000 0.30000000
-1.20290121 1.67349930 -2.27051337 0.30000000 0.30000000 0.30000000
0.15330791 0.46720866 -0.92378907 0.30000000 0.30000000 0.30000000
-0.02523751 1.16582312 -1.76201423 0.30000000 0.30000000 0.30000000
0.04005863 1.24275731 -1.05619916 0.30000000 0.30000000 0.30000000
0.32218729 0.66250617 -1.13412432 0.30000000 0.30000000 0.30000000
-0.13777436 1.49518881 -0.63893398 0.30000000 0.30000000 0.30000000
-0.47260209 1.43904441 -0.91682899 0.30000000 0.30000000 0.30000000
-0.08195398 0.43852452 -1.26319236 0.30000000 0.30000000 0.30000000
-0.34597466 1.19330448 -0.71274157 0.30000000 0.30000000 0.30000000
-0.72582141 1.20442561 -0.15251364 0.30000000 0.30000000 0.30000000
1.84759555 1.15517199 -0.65006507 0.30000000 0.30000000 0.30000000
-0.21189799 0.80621299 -0.39060063 0.30000000 0.30000000 0.30000000
-0.98552467 0.89519406 -1.49566949 0.30000000 0.30000000 0.30000000
-0.69080017 1.96166732 -0.02836450 0.30000000 0.30000000 0.30000000
-0.47167241 1.45838649 -0.66405589 0.30000000 0.30000000 0.30000000
-0.22468983 1.18691224 -1.81163767 0.30000000 0.30000000 0.30000000
0.80236580 0.79561409 -1.67316412 0.30000000 0.30000000 0.30000000
0.62194795 1.71348865 -1.57133452 0.30000000 0.30000000 0.30000000
-0.44830028 0.79268308 -0.86218604 0.30000000 0.30000000 0.30000000
0.18633701 1.22757467 -1.29019652 0.30000000 0.30000000 0.30000000
-1.37104210 0.65508024 -0.26859166 0.30000000 0.30000000 0.30000000
-0.36727049 1.12747682 -1.48241493 0.30000000 0.30000000 0.30000000
-0.47379563 1.76953307 -1.12877366 0.30000000 0.30000000 0.30000000
-0.84991432 -0.15200726 -1.61649409 0.90000000 0.90000000 0.90000000
0.02929390 0.95848187 -1.09033698 0.30000000 0.30000000 0.30000000
0.21455504 1.03631187 -1.38791230 0.30000000 0.30000000 0.30000000
-0.62322853 0.29308964 -0.72243010 0.30000000 0.30000000 0.30000000
0.79753190 0.94053525 -0.94692571 0.30000000 0.30000000 0.30000000
0.28237519 1.57279957 -0.86395501 0.30000000 0.30000000 0.30000000
-0.74858609 1.13898203 -1.41730893 0.30000000 0.30000000 0.30000000
-0.18975570 1.07155075 -1.15460311 0.30000000 0.30000000 0.30000000
-0.57899573 1.14198893 -0.72430996 0.30000000 0.30000000 0.30000000
0.61535748 1.33846588 -0.10560214 0.30000000 0.30000000 0.30000000
-1.02887622 1.68952483 -0.30277692 0.30000000 0.30000000 0.30000000
0.25733655 0.48456448 -1.28903838 0.30000000 0.30000000 0.30000000
0.02165720 2.14101376 -1.10107226 0.30000000 0.30000000 0.30000000
0.71256908 0.93962637 -0.50590776 0.30000000 0.30000000 0.30000000
0.68090650 1.13977708 -1.68320625 0.30000000 0.30000000 0.30000000
-0.18061487 1.26817989 -0.67934499 0.30000000 0.30000000 0.30000000
0.66505280 0.75702585 -1.40376146 0.30000000 0.30000000 0.30000000
0.33814203 0.90659479 -1.02860660 0.30000000 0.30000000 0.30000000
-0.47257468 0.66084706 -1.46575395 0.30000000 0.30000000 0.30000000
0.84899277 0.98595070 -1.17403150 0.30000000 0.30000000 0.30000000
1.26053496 1.12610633 -0.32455108 0.30000000 0.30000000 0.30000000
0.80413438 0.47376164 -1.23737298 0.30000000 0.30000000 0.30000000
-0.29408922 1.09133664 -1.11565685 0.30000000 0.30000000 0.30000000
-0.05654503 0.52982510 -1.50073294 0.30000000 0.30000000 0.30000000
-0.15575845 0.72719477 -1.01285321 0.30000000 0.30000000 0.30000000
0.47866303 1.17999313 -0.92649853 0.30000000 0.30000000 0.30000000
0.39791969 0.98747966 -0.48147135 0.30000000 0.30000000 0.30000000
0.14675276 1.15553761 -1.04310030 0.30000000 0.30000000 0.30000000
-0.71758875 0.80658186 -0.47997773 0.30000000 0.30000000 0.30000000
-0.57391500 1.53264891 -1.09740141 0.30000000 0.30000000 0.30000000
0.21412572 1.47586554 -0.23542703 0.30000000 0.30000000 0.30000000
-0.48982946 1.54182467 -1.43314545 0.30000000 0.30000000 0.30000000
-0.08589535 1.21997975 -0.68314267 0.30000000 0.30000000 0.30000000
0.06084962 1.51567197 -1.30371311 0.30000000 0.30000000 0.30000000
0.74951854 1.44215152 -0.96194789 0.30000000 0.30000000 0.30000000
-1.27277964 1.38901800 -0.65499826 0.30000000 0.30000000 0.30000000
0.70581137 0.91315921 -1.29247645 0.30000000 0.30000000 0.30000000
-0.22971595 0.74484217 -1.18021019 0.30000000 0.30000000 0.30000000
0.96744690 2.16440860 -0.87064181 0.30000000 0.30000000 0.30000000
-0.78502969 0.51732187 -1.36507952 0.30000000 0.30000000 0.30000000
0.20191618 0.69113506 -1.21265088 0.30000000 0.30000000 0.30000000
0.35682822 0.93766691 -1.43377415 0.30000000 0.30000000 0.30000000
-1.19111379 0.88821557 -0.34833435 0.30000000 0.30000000 0.30000000
0.56264191 1.20247576 -1.52287363 0.30000000 0.30000000 0.30000000
0.29513316 0.59098691 -0.30678956 0.30000000 0.30000000 0.30000000
0.09343878 1.28006016 -1.06217979 0.30000000 0.30000000 0.30000000
-0.83990945 0.48931313 -1.80823194 0.30000000 0.30000000 0.30000000
-0.20685826 0.93472318 -1.67157539 0.30000000 0.30000000 0.30000000
-0.41614475 1.58422326 -1.48975842 0.30000000 0.30000000 0.30000000
0.56114651 1.22051232 -1.69937204 0.30000000 0.30000000 0.30000000
0.43127014 0.77169702 -1.08045890 0.30000000 0.30000000 0.30000000
-1.21654077 1.49364114 -0.76192630 0.30000000 0.30000000 0.30000000
-0.67797638 1.90819885 -0.30428462 0.30000000 0.30000000 0.30000000
1.60653673 0.28411758 -0.18603794 0.30000000 0.30000000 0.30000000
0.04236341 0.83304122 0.07446073 0.00000000 0.00000000 0.00000000
-0.68053044 1.17549654 -1.10386363 0.30000000 0.30000000 0.30000000
-0.87378575 1.35200199 -1.58304915 0.30000000 0.30000000 0.30000000
1.04997888 1.26228597 -1.04039562 0.30000000 0.30000000 0.30000000
0.64288991 -0.29579893 -0.87965507 0.90000000 0.90000000 0.90000000
-0.33196774 1.54458537 -1.17636529 0.30000000 0.30000000 0.30000000
-0.16681698 0.93269258 -0.18834034 0.30000000 0.30000000 0.30000000
-0.05404773 0.57904589 -1.45741888 0.30000000 0.30000000 0.30000000
-0.07281853 0.89559513 -1.04604017 0.30000000 0.30000000 0.30000000
0.99754571 1.42201607 -0.44964323 0.30000000 0.30000000 0.30000000
-0.25263659 0.44618667 -1.07643723 0.30000000 0.30000000 0.30000000
-0.57491005 0.96047387 -1.39682275 0.30000000 0.30000000 0.30000000
0.74498826 1.01778057 -1.60416163 0.30000000 0.30000000 0.30000000
-0.30992342 0.90119429 -1.35961230 0.30000000 0.30000000 0.30000000
1.08100350 1.43200685 -0.61757307 0.30000000 0.30000000 0.30000000
0.49676447 0.85169944 -1.09241360 0.30000000 0.30000000 0.30000000
-0.63471448 1.46624790 -0.58226146 0.30000000 0.30000000 0.30000000
-1.14673526 0.57768187 -0.14301326 0.30000000 0.30000000 0.30000000
0.22101938 1.66433517 -0.39601343 0.30000000 0.30000000 0.30000000
0.19608862 0.66679184 -0.80304700 0.30000000 0.30000000 0.30000000
0.11689141 1.29792747 -0.84554356 0.30000000 0.30000000 0.30000000
0.63739015 1.03370850 -1.32399839 0.30000000 0.30000000 0.30000000
1.14020441 1.09926179 -1.30711678 0.30000000 0.30000000 0.30000000
0.15205606 1.14406978 -0.30636180 0.30000000 0.30000000 0.30000000
-0.98064738 0.98192801 -0.81513768 0.30000000 0.30000000 0.30000000
-0.20351840 1.44759275 -0.36958503 0.30000000 0.30000000 0.30000000
-0.27676960 -0.04471318 -1.04889394 0.90000000 0.90000000 0.90000000
0.64870446 1.61613882 -0.81484244 0.30000000 0.30000000 0.30000000
-0.42380927 1.22505861 -1.66023438 0.30000000 0.30000000 0.30000000
0.84466273 1.87871302 -0.32396359 0.30000000 0.30000000 0.30000000
0.06339022 2.01170277 -0.13626345 0.30000000 0.30000000 0.30000000
-1.53867809 0.52999218 -0.91804110 0.30000000 0.30000000 0.30000000
0.16330126 0.34194550 -0.81311443 0.30000000 0.30000000 0.30000000
0.54144808 0.86971434 -0.55854885 0.30000000 0.30000000 0.30000000
-0.45057027 0.85262568 -0.87080378 0.30000000 0.30000000 0.30000000
-0.18934216 0.45261018 -0.52325915 0.30000000 0.30000000 0.30000000
0.38162594 1.72385367 -1.01294607 0.30000000 0.30000000 0.30000000
0.59821257 0.50562235 -0.62827560 0.30000000 0.30000000 0.30000000
0.01100423 1.39196547 -1.68514426 0.30000000 0.30000000 0.30000000
-0.25052776 1.10723061 -1.38792399 0.30000000 0.30000000 0.30000000
-0.48974351 0.62423143 -1.33870224 0.30000000 0.30000000 0.30000000
-0.33810996 0.05946067 -0.22838750 0.30000000 0.30000000 0.30000000
-1.09226040 0.40700427 -1.35036844 0.30000000 0.30000000 0.30000000
0.06067987 0.60982320 -1.58224393 0.30000000 0.30000000 0.30000000
0.99552613 0.89834242 -0.77512986 0.30000000 0.30000000 0.30000000
-0.11115275 0.58324691 -1.11912304 0.30000000 0.30000000 0.30000000
-0.31726235 0.86169239 -0.78265733 0.30000000 0.30000000 0.30000000
0.21120803 2.09761669 -0.69232816 0.30000000 0.30000000 0.30000000
0.23657854 1.40501303 -0.69647917 0.30000000 0.30000000 0.30000000
0.48462678 0.83091041 -0.96439954 0.30000000 0.30000000 0.30000000
0.22157514 0.97566161 -0.60783818 0.30000000 0.30000000 0.30000000
-0.28633013 0.27226460 -0.50169103 0.30000000 0.30000000 0.30000000
1.07213813 1.15311881 -1.05979601 0.30000000 0.30000000 0.30000000
-0.27069985 1.01365479 -0.48760294 0.30000000 0.30000000 0.30000000
1.24024540 1.02139882 -1.16429848 0.30000000 0.30000000 0.30000000
0.25584585 -0.36006513 0.01861026 0.60000000 0.60000000 0.60000000
-0.76278826 1.96729509 -0.13246463 0.30000000 0.30000000 0.30000000
-0.16441678 1.74608407 -0.19592993 0.30000000 0.30000000 0.30000000
0.33127127 0.86985724 -0.46713372 0.30000000 0.30000000 0.30000000
0.20231173 0.83996063 -1.05674187 0.30000000 0.30000000 0.30000000
0.25921752 1.31877899 -0.49755284 0.30000000 0.30000000 0.30000000
0.65356819 1.01605627 -0.58241179 0.30000000 0.30000000 0.30000000
0.22853543 1.54442049 -1.08049905 0.30000000 0.30000000 0.30000000
-0.52548187 1.39425706 -0.60731759 0.30000000 0.30000000 0.30000000
-1.01633179 1.45526163 -0.95567443 0.30000000 0.30000000 0.30000000
-0.97542618 0.87953673 -1.51748106 0.30000000 0.30000000 0.30000000
0.12253502 0.85515779 -0.70935890 0.30000000 0.30000000 0.30000000
-0.01093529 1.11480645 -0.25309084 0.30000000 0.30000000 0.30000000
-0.53512608 1.42878208 -1.48791658 0.30000000 0.30000000 0.30000000
-1.38358007 0.65753540 -1.31004237 0.30000000 0.30000000 0.30000000
-0.04334927 0.81056464 -1.06103637 0.30000000 0.30000000 0.30000000
0.05974203 1.97292521 0.19476926 0.00000000 0.00000000 0.00000000
0.26326001 0.32616847 -1.17194213 0.30000000 0.30000000 0.30000000
-0.98077971 0.74036135 -1.16413387 0.30000000 0.30000000 0.30000000
-0.24763121 1.19038206 -1.68148823 0.30000000 0.30000000 0.30000000
0.47040397 0.67080428 -1.63968732 0.30000000 0.30000000 0.30000000
0.76230421 1.29678280 -0.39347502 0.30000000 0.30000000 0.30000000
0.56593335 0.94070806 -0.47496556 0.30000000 0.30000000 0.30000000
-0.68139391 1.38067050 -1.80043613 0.30000000 0.30000000 0.30000000
0.03828416 0.82863409 -0.38327981 0.30000000 0.30000000 0.30000000
0.27336033 0.30831168 -1.29172834 0.30000000 0.30000000 0.30000000
0.48310047 1.52648993 -1.84575187 0.30000000 0.30000000 0.30000000
-0.48376754 1.13707468 -0.82337684 0.30000000 0.30000000 0.30000000
0.81135144 1.53584140 -1.05515500 0.30000000 0.30000000 0.30000000
-0.56252675 1.30098114 -0.78583900 0.30000000 0.30000000 0.30000000
0.66414890 2.40831418 -0.94891897 0.30000000 0.30000000 0.30000000
-0.25005706 0.05809765 -1.63663711 0.30000000 0.30000000 0.30000000
0.51257031 1.13309392 -1.60002871 0.30000000 0.30000000 0.30000000
-0.47523808 1.02456840 -0.59302596 0.30000000 0.30000000 0.30000000
-0.21312926 0.94804706 -1.47972466 0.30000000 0.30000000 0.30000000
0.05838995 1.75010572 -1.54778210 0.30000000 0.30000000 0.30000000
-0.01375713 1.03239442 -0.59736702 0.30000000 0.30000000 0.30000000
-0.14396136 1.65375346 -1.07995564 0.30000000 0.30000000 0.30000000
0.32190933 1.92693060 -1.04131539 0.30000000 0.30000000 0.30000000
1.09741837 -0.81448585 -0.42896861 0.90000000 0.90000000 0.90000000
-0.37028468 1.14176453 -0.94526574 0.30000000 0.30000000 0.30000000
0.01395253 0.36527628 -1.05608909 0.30000000 0.30000000 0.30000000
-0.13880820 0.61353910 -1.53789055 0.30000000 0.30000000 0.30000000
-1.04006637 0.74495436 -0.83741667 0.30000000 0.30000000 0.30000000
0.97373394 0.60777600 -0.83785274 0.30000000 0.30000000 0.30000000
0.43594849 1.15764792 -1.37376921 0.30000000 0.30000000 0.30000000
-0.04380225 0.54332675 -0.56714930 0.30000000 0.30000000 0.30000000
-0.37592559 1.27942079 -1.57377288 0.30000000 0.30000000 0.30000000
-0.13701874 0.80479018 -1.44474956 0.30000000 0.30000000 0.30000000
-0.78932986 0.72818722 -0.64281706 0.30000000 0.30000000 0.30000000
0.19707458 1.37376942 -0.87232487 0.30000000 0.30000000 0.30000000
0.56817250 1.06723095 -1.66675257 0.30000000 0.30000000 0.30000000
0.02458508 1.14516919 -0.79317269 0.30000000 0.30000000 0.30000000
-0.35997758 1.13209695 -0.74373895 0.30000000 0.30000000 0.30000000
-0.53894014 1.41163214 -2.23558531 0.30000000 0.30000000 0.30000000
0.26397789 0.12315189 -0.89998515 0.30000000 0.30000000 0.30000000
0.63220578 0.79723658 -0.60201793 0.30000000 0.30000000 0.30000000
0.15180557 0.25894848 -0.22133773 0.30000000 0.30000000 0.30000000
-1.31661893 1.56711009 -0.61884906 0.30000000 0.30000000 0.30000000
-0.39051113 1.42819175 -1.06850282 0.30000000 0.30000000 0.30000000
-0.49863723 1.08022478 -1.46232331 0.30000000 0.30000000 0.30000000
0.51757128 0.49720474 -0.16949981 0.30000000 0.30000000 0.30000000
0.31373503 0.29691955 -1.20570059 0.30000000 0.30000000 0.30000000
0.31147419 1.25181162 -0.45415825 0.30000000 0.30000000 0.30000000
0.13510599 1.03704623 -0.58796474 0.30000000 0.30000000 0.30000000
-1.25053200 1.54084549 -1.50458736 0.30000000 0.30000000 0.30000000
-0.46616018 0.29957916 -2.15438947 0.30000000 0.30000000 0.30000000
-0.19696288 1.16235835 -1.15676063 0.30000000 0.30000000 0.30000000
0.29778318 1.04333634 -0.88866631 0.30000000 0.30000000 0.30000000
0.45796664 1.63601104 -0.86515922 0.30000000 0.30000000 0.30000000
0.13061227 0.94350498 -2.24340345 0.30000000 0.30000000 0.30000000
-0.91968408 1.19406726 -1.90911574 0.30000000 0.30000000 0.30000000
0.29628812 0.93662551 -1.30580536 0.30000000 0.30000000 0.30000000
0.69704928 1.25482017 -0.76899954 0.30000000 0.30000000 0.30000000
-0.67368484 1.14687423 -0.89372038 0.30000000 0.30000000 0.30000000
0.28714002 1.24098332 -0.12085987 0.30000000 0.30000000 0.30000000
-0.56306407 1.63427981 -0.17452096 0.30000000 0.30000000 0.30000000
-0.01964430 0.95160597 -1.25726805 0.30000000 0.30000000 0.30000000
-0.71764131 0.89230308 -0.66942262 0.30000000 0.30000000 0.30000000
-0.52385015 0.81418980 -0.92043844 0.30000000 0.30000000 0.30000000
0.41922933 1.16252742 -0.95290893 0.30000000 0.30000000 0.30000000
-0.42450972 1.33664191 -0.93782200 0.30000000 0.30000000 0.30000000
-0.04093826 1.71387800 -0.42852681 0.30000000 0.30000000 0.30000000
-0.10263694 0.85743326 -0.84168546 0.30000000 0.30000000 0.30000000
0.68119528 1.35091297 -1.25623015 0.30000000 0.30000000 0.30000000
0.07097470 1.24649311 -0.24032592 0.30000000 0.30000000 0.30000000
-0.65306680 1.08981022 -1.15218429 0.30000000 0.30000000 0.30000000
0.62032778 1.52698644 -0.49333545 0.30000000 0.30000000 0.30000000
0.69844843 0.32618564 -1.44090615 0.30000000 0.30000000 0.30000000
-0.63791185 1.69712151 -0.44171144 0.30000000 0.30000000 0.30000000
-0.18338814 1.83799861 -0.82298175 0.30000000 0.30000000 0.30000000
-0.19074912 1.16111332 -1.33388125 0.30000000 0.30000000 0.30000000
0.29716385 1.01332646 -1.88919475 0.30000000 0.30000000 0.30000000
-1.12858448 0.88903184 0.06537277 0.00000000 0.00000000 0.00000000
0.51540286 0.57881890 -1.31352020 0.30000000 0.30000000 0.30000000
-0.61346072 1.17127057 -0.70488232 0.30000000 0.30000000 0.30000000
-0.45479047 1.18063026 -1.22147796 0.30000000 0.30000000 0.30000000
-0.15775271 0.91281046 -1.07110020 0.30000000 0.30000000 0.30000000
-0.06922481 0.94793857 -0.11406103 0.30000000 0.30000000 0.30000000
-0.03975418 1.32008699 -1.70901072 0.30000000 0.30000000 0.30000000
-0.16096957 0.32240284 -0.84656117 0.30000000 0.30000000 0.30000000
-0.11928379 1.08446556 -1.69082706 0.30000000 0.30000000 0.30000000
0.25823720 1.32214913 -1.73091743 0.30000000 0.30000000 0.30000000
0.00030899 0.95086906 -2.19539554 0.30000000 0.30000000 0.30000000
-0.16868878 0.51441689 -0.90905941 0.30000000 0.30000000 0.30000000
0.01129281 1.28186665 -0.46233765 0.30000000 0.30000000 0.30000000
-0.14944333 1.31695233 -1.86377857 0.30000000 0.30000000 0.30000000
-0.27760248 1.27547952 -0.70772733 0.30000000 0.30000000 0.30000000
-0.97102260 1.63788359 -0.67598791 0.30000000 0.30000000 0.30000000
-0.50865467 1.53887053 -1.07937931 0.30000000 0.30000000 0.30000000
0.45948225 0.93801469 -0.50076613 0.30000000 0.30000000 0.30000000
-0.91680676 0.62066384 -1.45251731 0.30000000 0.30000000 0.30000000
0.27944567 0.83373434 -0.56293649 0.30000000 0.30000000 0.30000000
0.36675745 1.00255865 0.02848061 0.00000000 0.00000000 0.00000000
-0.19972498 1.31474857 -0.21923333 0.30000000 0.30000000 0.30000000
0.83794281 0.95754658 -1.05603302 0.30000000 0.30000000 0.30000000
-0.62088161 1.13490735 -0.85221351 0.30000000 0.30000000 0.30000000
0.24692698 0.92368539 -2.05659412 0.30000000 0.30000000 0.30000000
-0.13287652 1.16916718 -1.06456577 0.30000000 0.30000000 0.30000000
-0.05363329 0.86043439 -0.22644077 0.30000000 0.30000000 0.30000000
-0.58595163 0.84116784 -1.33048571 0.30000000 0.30000000 0.30000000
0.26688117 1.00233222 -1.42548520 0.30000000 0.30000000 0.30000000
0.68071385 1.69944973 -1.22592561 0.30000000 0.30000000 0.30000000
-0.26821262 1.34953885 -1.55572623 0.30000000 0.30000000 0.30000000
-0.37922959 1.97759442 -0.68676496 0.30000000 0.30000000 0.30000000
-0.48267115 1.35910451 -1.24034899 0.30000000 0.30000000 0.30000000
-0.85624676 0.99977860 -0.72471020 0.30000000 0.30000000 0.30000000
0.67366840 0.98354770 -1.33723554 0.30000000 0.30000000 0.30000000
-0.14639118 1.28130082 -0.78875934 0.30000000 0.30000000 0.30000000
0.66244011 1.71815281 -1.64033662 0.30000000 0.30000000 0.30000000
0.12685909 0.34937436 -1.24512291 0.30000000 0.30000000 0.30000000
-0.12843008 1.26654175 -0.60211692 0.30000000 0.30000000 0.30000000
-0.21292448 1.31206623 -0.50827189 0.30000000 0.30000000 0.30000000
0.72143477 2.15309119 -0.87703412 0.30000000 0.30000000 0.30000000
-0.65979206 0.43550342 -1.05523482 0.30000000 0.30000000 0.30000000
-0.46897996 0.51537951 -1.50460540 0.30000000 0.30000000 0.30000000
0.19163560 1.40566320 -0.59770351 0.30000000 0.30000000 0.30000000
-0.48463075 -0.17622455 -1.12706256 0.90000000 0.90000000 0.90000000
-0.48707061 1.92211953 -1.31021918 0.30000000 0.30000000 0.30000000
0.58811208 0.37039667 -0.38298402 0.30000000 0.30000000 0.30000000
-0.92764659 1.70244511 0.03900977 0.00000000 0.00000000 0.00000000
-0.01479601 0.88316169 -0.70188266 0.30000000 0.30000000 0.30000000
0.26903941 1.60823639 -1.12280001 0.30000000 0.30000000 0.30000000
-0.31883757 0.73206854 -1.04657264 0.30000000 0.30000000 0.30000000
0.22547727 1.29459507 0.05226840 0.00000000 0.00000000 0.00000000
0.50729425 0.40223253 -2.14629994 0.30000000 0.30000000 0.30000000
0.43770980 0.64191023 -1.11737606 0.30000000 0.30000000 0.30000000
0.97562091 0.96111583 -1.44647519 0.30000000 0.30000000 0.30000000
0.41136866 1.09009391 -1.34905543 0.30000000 0.30000000 0.30000000
0.31091057 1.34433076 -1.48207901 0.30000000 0.30000000 0.30000000
-0.52073495 0.80387905 -1.05149790 0.30000000 0.30000000 0.30000000
0.40160074 1.32158743 -0.32220168 0.30000000 0.30000000 0.30000000
-0.30116973 0.10477665 -0.41784309 0.30000000 0.30000000 0.30000000
0.40411534 0.68971505 -1.15739092 0.30000000 0.30000000 0.30000000
0.14420407 1.36959833 -0.18312376 0.30000000 0.30000000 0.30000000
0.76192942 1.09411871 -0.71420702 0.30000000 0.30000000 0.30000000
0.32303113 -0.27609313 -0.60165378 0.90000000 0.90000000 0.90000000
-0.33157801 1.13546921 -1.01871753 0.30000000 0.30000000 0.30000000
-0.03549679 -0.07555870 -0.78767895 0.90000000 0.90000000 0.90000000
0.53373479 1.43814993 -1.47401408 0.30000000 0.30000000 0.30000000
-0.06857074 0.52198629 -1.29450590 0.30000000 0.30000000 0.30000000
-0.54710168 0.72762047 -0.85021629 0.30000000 0.30000000 0.30000000
0.23656179 2.12817955 -0.61489391 0.30000000 0.30000000 0.30000000
0.31420172 1.08184715 -1.40120516 0.30000000 0.30000000 0.30000000
0.25569411 0.91941895 -0.39090341 0.30000000 0.30000000 0.30000000
0.26420861 1.07522877 -0.16710085 0.30000000 0.30000000 0.30000000
-0.07470070 0.66793478 -0.88728775 0.30000000 0.30000000 0.30000000
0.83117354 1.45653114 -1.05735221 0.30000000 0.30000000 0.30000000
0.17268577 1.19221189 -1.39448636 0.30000000 0.30000000 0.30000000
-0.20360086 1.04961790 -1.01786729 0.30000000 0.30000000 0.30000000
-0.01038107 0.69813283 -1.26653790 0.30000000 0.30000000 0.30000000
-0.55176773 1.39501894 -0.18302622 0.30000000 0.30000000 0.30000000
0.34018160 0.52838436 -0.99846983 0.30000000 0.30000000 0.30000000
0.72202936 -0.34820427 -0.93567331 0.90000000 0.90000000 0.90000000
0.43327615 0.55476682 -1.68511164 0.30000000 0.30000000 0.30000000
0.28435212 0.93246103 -1.26937969 0.30000000 0.30000000 0.30000000
0.24432370 0.80476906 -0.17804778 0.30000000 0.30000000 0.30000000
0.68580200 2.02152431 -1.09096106 0.30000000 0.30000000 0.30000000
-0.21867562 0.35661101 -0.98390005 0.30000000 0.30000000 0.30000000
-0.80768124 0.95754562 -1.25218902 0.30000000 0.30000000 0.30000000
-0.49313981 0.24865336 -0.84142484 0.30000000 0.30000000 0.30000000
-0.74724564 0.89905631 -1.26712026 0.30000000 0.30000000 0.30000000
0.44270256 1.86575689 -0.05479249 0.30000000 0.30000000 0.30000000
-0.70042421 0.85356139 -2.22165176 0.30000000 0.30000000 0.30000000
-0.14186772 0.99846006 0.06404787 0.00000000 0.00000000 0.00000000
0.30475865 1.29254399 -0.90735377 0.30000000 0.30000000 0.30000000
0.08371161 -0.07011144 -0.79020385 0.90000000 0.90000000 0.90000000
-0.03633993 2.02360599 -0.72351027 0.30000000 0.30000000 0.30000000
-0.16848088 0.97923712 -2.38651008 0.30000000 0.30000000 0.30000000
0.37704450 0.47809629 -1.87220589 0.30000000 0.30000000 0.30000000
-0.21998325 1.24623958 -0.93188474 0.30000000 0.30000000 0.30000000
1.10416812 1.13321665 -1.21435121 0.30000000 0.30000000 0.30000000
0.77055161 1.43259595 -0.36632885 0.30000000 0.30000000 0.30000000
-0.69518807 1.01075631 -0.92510473 0.30000000 0.30000000 0.30000000
-0.22576227 0.62701772 -0.94337744 0.30000000 0.30000000 0.30000000
-0.22876294 1.69112587 -1.55343268 0.30000000 0.30000000 0.30000000
0.67861989 2.00660532 0.02429532 0.00000000 0.00000000 0.00000000
0.08951402 1.15169920 -0.67618311 0.30000000 0.30000000 0.30000000
0.50527990 2.40995608 -1.05243874 0.30000000 0.30000000 0.30000000
-0.74208100 1.38835859 -0.38374530 0.30000000 0.30000000 0.30000000
-0.26569115 1.08666833 0.01810840 0.00000000 0.00000000 0.00000000
0.13558800 1.33940367 -1.10743251 0.30000000 0.30000000 0.30000000
-0.78977307 1.43547218 -0.96251808 0.30000000 0.30000000 0.30000000
-0.68462278 -0.07446073 -0.15476572 0.90000000 0.90000000 0.90000000
0.57243158 0.92722579 -1.33441082 0.30000000 0.30000000 0.30000000
-0.07603111 1.36600601 -0.99930091 0.30000000 0.30000000 0.30000000
0.72446323 1.18471477 -0.86725129 0.30000000 0.30000000 0.30000000
-0.31751124 1.16652056 -1.16125753 0.30000000 0.30000000 0.30000000
0.39946547 0.92222877 -0.35247668 0.30000000 0.30000000 0.30000000
-0.42389578 0.93375865 -1.39211661 0.30000000 0.30000000 0.30000000
-0.87303276 1.28887459 -0.69500415 0.30000000 0.30000000 0.30000000
0.27433432 0.75127178 -1.38793636 0.30000000 0.30000000 0.30000000
-0.34470702 1.18010522 0.43215877 0.00000000 0.00000000 0.00000000
-0.05787709 0.09696897 -0.51054391 0.30000000 0.30000000 0.30000000
-0.71461560 1.21563404 -1.43827130 0.30000000 0.30000000 0.30000000
-0.07026580 1.35231198 -0.91408260 0.30000000 0.30000000 0.30000000
-0.75510391 0.75757274 -0.60503748 0.30000000 0.30000000 0.30000000
0.67979421 1.07482692 -1.83485581 0.30000000 0.30000000 0.30000000
-0.65192441 0.60842385 -1.39113022 0.30000000 0.30000000 0.30000000
-0.43853149 2.01644646 -1.14033849 0.30000000 0.30000000 0.30000000
-0.09697616 0.49498131 -0.61374025 0.30000000 0.30000000 0.30000000
-0.16151857 0.52555150 -0.78634096 0.30000000 0.30000000 0.30000000
-0.17262923 1.90242642 -0.89266870 0.30000000 0.30000000 0.30000000
-0.04389852 1.27540568 -1.22691048 0.30000000 0.30000000 0.30000000
-0.41193130 1.34322928 -0.99326598 0.30000000 0.30000000 0.30000000
0.06783980 0.87296416 -0.73989871 0.30000000 0.30000000 0.30000000
-0.39106097 0.16344412 -0.16441710 0.30000000 0.30000000 0.30000000
0.04905670 0.11619831 -0.38575901 0.30000000 0.30000000 0.30000000
-0.22102157 0.44094067 -0.84086280 0.30000000 0.30000000 0.30000000
0.31309936 1.23980590 -1.03387451 0.30000000 0.30000000 0.30000000
0.02704031 0.15303592 -1.30189720 0.30000000 0.30000000 0.30000000
0.17101742 1.48041889 -1.65770932 0.30000000 0.30000000 0.30000000
0.28649175 0.31847541 -0.43118861 0.30000000 0.30000000 0.30000000
0.14404808 0.74784550 -0.40673665 0.30000000 0.30000000 0.30000000
0.41164589 1.17292495 -2.09547916 0.30000000 0.30000000 0.30000000
-0.39202490 1.01446293 -0.76043759 0.30000000 0.30000000 0.30000000
-0.23519080 1.04839826 -0.83888001 0.30000000 0.30000000 0.30000000
-0.96217810 1.31560899 -1.17400771 0.30000000 0.30000000 0.30000000
-0.52827448 1.77662426 -1.41361874 0.30000000 0.30000000 0.30000000
0.22675734 1.07331836 -1.31275286 0.30000000 0.30000000 0.30000000
0.32133207 0.61919657 -1.25336048 0.30000000 0.30000000 0.30000000
0.22827267 1.04426535 -1.74424291 0.30000000 0.30000000 0.30000000
1.24320808 1.24499346 -1.28894020 0.30000000 0.30000000 0.30000000
0.17477580 0.26969526 -1.07772597 0.30000000 0.30000000 0.30000000
-0.11911736 0.81648298 -1.48919586 0.30000000 0.30000000 0.30000000
0.23489435 1.16889174 -1.14961421 0.30000000 0.30000000 0.30000000
-0.29639905 0.56566052 -1.21606161 0.30000000 0.30000000 0.30000000
-0.35939795 0.70211508 -1.08671806 0.30000000 0.30000000 0.30000000
0.72128550 1.01480798 -1.51960519 0.30000000 0.30000000 0.30000000
-0.06250318 0.79979357 -0.90840963 0.30000000 0.30000000 0.30000000
0.02326255 0.96815357 -1.81737405 0.30000000 0.30000000 0.30000000
-0.63064409 1.60610640 -0.99365158 0.30000000 0.30000000 0.30000000
0.14155613 1.34217268 -1.22155470 0.30000000 0.30000000 0.30000000
0.27785484 0.73250343 -1.00929553 0.30000000 0.30000000 0.30000000
-0.15626765 1.58744911 -1.00934746 0.30000000 0.30000000 0.30000000
0.05293202 0.76248934 -0.85264841 0.30000000 0.30000000 0.30000000
-0.29652775 0.64242411 -0.85366144 0.30000000 0.30000000 0.30000000
0.13138736 1.56411027 -1.20690936 0.30000000 0.30000000 0.30000000
0.15202198 1.16084076 -1.78045461 0.30000000 0.30000000 0.30000000
-0.24247637 1.76804357 -0.82165840 0.30000000 0.30000000 0.30000000
-0.61323718 0.77400431 -2.02445102 0.30000000 0.30000000 0.30000000
-0.25992898 1.45763155 -1.73426784 0.30000000 0.30000000 0.30000000
-0.26245386 -0.09295129 -1.09992344 0.90000000 0.90000000 0.90000000
-0.12286538 0.20409562 -0.69934218 0.30000000 0.30000000 0.30000000
-1.18481559 1.42817720 -0.73268549 0.30000000 0.30000000 0.30000000
0.79630389 0.58120238 -2.01843495 0.30000000 0.30000000 0.30000000
-0.46307521 1.18709082 -0.84034024 0.30000000 0.30000000 0.30000000
-0.38820901 0.92234498 -2.05908738 0.30000000 0.30000000 0.30000000
